# .PCD v0.7 - Point Cloud Data file format
VERSION 0.7
FIELDS x y z
SIZE 4 4 4
TYPE F F F
COUNT 1 1 1
WIDTH 1473
HEIGHT 1
VIEWPOINT 0 0 0 1 0 0 0
POINTS 1473
DATA ascii
1.6051748 -0.18274859 0.45396829
1.6167036 -0.096205965 0.42914373
1.697891 -0.20174272 0.71907991
1.850309 0.17034467 0.34078407
2.219439 0.26036504 0.93938977
2.2570269 -0.46507907 0.64646858
2.4517875 0.096299455 1.0591922
1.2943239 -0.015045311 0.15819922
1.3035376 -0.041645613 0.18287654
1.3031188 -0.032043431 0.18961643
1.3101171 -0.18691193 0.35152021
1.3172271 -0.071864508 0.17141654
1.3189651 -0.087363377 0.12984471
1.3279701 -0.12377851 0.13561647
1.3607286 0.11194994 0.12601154
1.3568813 0.12079353 0.16010965
1.3951367 -0.11672504 0.039071862
1.3735403 0.11100323 0.17804188
1.4888113 -0.11837731 0.011382974
1.4774221 -0.12535843 0.02721929
1.4848785 0.17469513 0.35067278
1.2477323 -0.17199442 0.34060344
1.2457888 -0.17170767 0.33996624
1.2823967 0.17382704 0.18128195
1.3019447 -0.0031714796 0.16771528
1.3103629 0.061190169 0.16206127
1.3040226 0.17462577 0.24392112
1.316195 0.022161258 0.13155045
1.3203518 -0.067013405 0.20479792
1.3527155 0.17583534 0.23765875
1.4116194 0.16539598 0.26932687
1.5867729 -0.32545349 -0.0071385847
1.5264269 0.18145858 0.67200309
1.6003214 -0.23502365 0.74653387
1.5534556 -0.095967256 0.72016978
2.9376702 0.17848441 0.54249901
1.92065 -0.2061149 0.33493781
1.8188517 -0.24864665 0.6239298
1.8599595 0.17582813 0.68550372
2.2749889 -0.072559766 0.74025589
2.0171449 -0.21919303 0.71619982
1.8436117 0.21952897 0.75582427
1.5510881 -0.2206099 0.4397139
1.6174651 -0.18748382 0.39828616
1.5826436 -0.18028449 0.72273523
1.5988759 -0.1931323 0.7579174
1.5988414 -0.17129086 0.70954067
1.7153373 -0.18530849 0.46753302
1.8189012 -0.22165573 0.55757034
1.7527412 -0.31455702 0.70617294
2.2595747 -0.44282064 0.61917567
2.1942847 0.2275188 0.72826684
2.5781794 0.1672823 0.74150604
1.2751596 0.17302892 0.24552374
1.3292261 -0.04331775 0.15979125
1.3198377 -0.0040534278 0.13104418
1.3229517 0.0022671283 0.1263324
1.3526505 -0.15732726 0.14302462
1.3745297 0.17138404 0.12048042
1.5167269 -0.066550739 0.078053385
1.4738984 0.17923178 0.61185235
1.5214883 -0.069361337 0.077853069
1.4668808 0.16305897 0.53321952
1.1665442 -0.041098673 0.15940893
1.5198433 0.18029794 0.31837302
1.5545833 -0.093895249 0.7204659
1.60859 -0.13183367 0.46575508
1.6209 -0.18098769 0.42018294
1.6401123 -0.093800895 0.44336736
1.6028261 -0.17446923 0.70853835
1.6878984 -0.29897264 0.33113036
1.8588815 -0.23032846 0.56256968
1.8258662 -0.24785611 0.62362176
1.8640609 -0.2622844 0.64757073
2.2969587 0.21448629 0.75916904
2.8844366 -0.17454894 0.37458098
3.1492624 -0.68127859 1.0425044
1.0595795 -0.058662318 0.1898178
1.2791762 -0.17843285 0.34586599
0.84882498 -0.0069920099 0.27875859
0.8935793 -0.009656758 0.25388137
1.0998054 -0.05034174 0.42285496
1.3106935 -0.06310191 0.16772431
1.3150644 -0.071348846 0.17175092
1.350716 -0.16245788 0.1400727
1.3497727 0.17483492 0.11929698
1.3641862 -0.16643307 0.13360257
1.4759213 0.17575096 0.23597054
1.4850622 -0.022442728 0.2488251
1.4908878 -0.043251261 0.27216551
1.5717107 -0.30266863 0.20798659
1.5646182 -0.19979136 0.21619941
1.5963002 0.1476665 0.17731377
1.5769281 0.16902614 0.63892949
1.5997941 -0.17679559 0.38571724
1.5417217 -0.019420438 0.65809786
0.90569514 0.02114371 0.29079553
1.3986874 0.14082322 0.15639104
1.4593982 0.2067246 0.2548238
1.4724679 0.22790293 0.26269209
1.4598877 0.20602699 0.25552559
1.4997823 -0.043643005 0.26706332
1.453823 0.17417832 0.60201764
1.5174375 0.17993237 0.31889805
1.5503571 -0.13836032 0.20018138
1.608222 -0.070262849 0.36609998
1.5898366 -0.12030604 0.46684512
1.6070564 -0.18532948 0.39544213
1.6067203 -0.18051867 0.41730803
1.6563265 0.22564502 0.31718358
1.8454497 -0.23455724 0.53436804
2.1419992 0.17195654 0.54888016
2.2576466 0.083894327 0.54024047
2.2732716 -0.46904117 0.64635968
2.3972011 0.092715815 1.0352236
3.0808189 -0.47232378 1.4714569
3.0619507 -0.68293995 1.0184691
1.3721803 0.18399297 0.54844373
1.4564712 -0.21124224 0.2087964
1.402163 1.5867521e-05 0.49684823
1.4928209 0.17867844 0.26237047
1.4452467 -0.28943312 0.70012802
1.4267439 0.009765828 0.70456517
1.4725988 0.0068331268 0.68458587
1.49872 0.001555012 0.70414001
1.4924827 0.0018337754 0.70168328
1.4915967 -0.026239742 0.73367226
1.5823061 -0.3065511 0.20650241
1.623651 -0.08014264 0.35787719
1.5689776 0.16726285 0.62782693
1.537159 -0.046473093 0.72380149
1.5667672 -0.039175462 0.70818084
1.5421621 -0.048270017 0.72835916
1.6214135 -0.11623277 0.48046535
1.627018 -0.26452971 0.64256632
1.6027576 0.15292768 0.75189263
1.6394087 0.046957362 0.78179872
1.6485447 0.0391686 0.79945236
1.7984402 -0.081936836 0.56624001
1.8563353 -0.20663854 0.53271514
2.0390968 0.35219508 0.23930544
2.6152847 0.41356868 0.40135083
0.85552317 -0.0071511492 0.27846411
1.5754772 -0.19144371 0.72104365
1.7155875 -0.30754039 0.34088975
1.7744697 -0.13070111 0.40873352
2.6725757 -0.14813603 -0.065736249
2.7455721 0.18043743 0.77836764
1.3652701 0.12370473 0.15045714
1.4835191 0.17763764 0.14321424
1.5067178 0.18388921 0.14128612
1.4903564 -0.022014143 0.24520516
1.4911436 -0.022201253 0.24609502
1.5341908 -0.19209799 0.21738607
1.546101 0.025162231 0.25534245
1.5663989 -0.20186286 0.22458875
1.5844306 -0.19174275 0.22245902
1.58084 -0.19151939 0.22349018
1.5987412 -0.20898733 0.22046126
1.5364739 -0.22639865 0.72254974
1.6024293 -0.16548535 0.42043734
1.5973558 -0.16352266 0.41843677
1.5424722 -0.059927311 0.72979236
1.540648 -0.25137177 0.74174547
1.5605505 -0.15362523 0.71784526
1.6228269 -0.18407178 0.39344773
1.6336991 -0.24559788 0.51217127
1.6957068 0.058032054 0.14657636
1.5772953 -0.18452342 0.7158609
1.6286353 -0.111948 0.52661234
1.6282575 -0.11581553 0.80078942
1.6234027 0.074486479 0.7789281
1.6227225 0.07222525 0.79283547
1.6272271 0.074818864 0.77751541
1.6398252 0.053047527 0.75946486
1.6194475 0.0478529 0.78080863
1.7949795 0.045196977 0.089604929
2.0145612 0.14189076 0.71639258
2.0715549 0.19204417 0.37918362
2.3662512 0.094327793 0.36983517
2.2306898 0.33168778 0.39182723
2.3410378 0.17474833 0.74919981
0.96673846 -0.075817928 0.25866252
0.99391574 -0.051531624 0.30499166
1.3337289 0.17679754 0.23639055
1.4674609 0.17105375 0.6324231
1.461856 -0.026941175 0.72831649
1.5627961 -0.17459063 0.44350058
1.4532099 -0.22000624 0.76816571
1.4844689 -0.20428528 0.75663733
1.4815497 -0.30761471 0.72745246
1.5040516 -0.22558102 0.71189946
1.5641311 -0.26214921 0.58530903
1.5265416 -0.10094152 0.7680347
1.5736194 -0.2337179 0.52684993
1.5979809 -0.10496943 0.46434885
1.5523531 -0.22784577 0.51962775
1.5343056 -0.053884704 0.73034883
1.714947 -0.29413116 0.18050496
1.5991461 0.14230785 0.74194109
1.6354419 0.067350142 0.79753917
1.7989079 -0.33756083 0.17722003
1.8533541 -0.34145543 0.77109748
2.349015 -0.2178275 0.3574475
2.364094 -0.27622321 0.34232038
2.3675051 -0.27553871 0.34592101
0.84764218 -0.026952494 0.2748974
0.85519111 -0.0069626761 0.27794123
0.99075729 -0.051100567 0.30496183
1.0779301 -0.034126617 0.32629412
1.3094304 -0.064312033 0.19980489
1.3017452 -0.18436664 0.35086489
1.3048887 -0.18574312 0.35102659
1.3670216 -0.094574437 0.19402565
1.1446716 -0.069632426 0.28136218
1.3716733 -0.095866837 0.19615078
1.3951243 -0.015677739 0.20278224
1.4653037 0.17332 0.22639641
1.4872026 -0.16024184 0.31384653
1.403857 0.010207072 0.6823014
1.4371365 -0.0084108589 0.72485441
1.4491508 -0.026126537 0.71947664
1.5944778 -0.075511411 0.35237104
1.4972215 0.12692067 0.76467824
1.5052637 -0.0863638 0.78120875
1.5156816 -0.084547162 0.78883809
1.5264226 -0.08460734 0.79611272
1.5409892 -0.15713017 0.79618275
1.6432009 -0.10425738 0.55576622
1.6137862 0.13699067 0.74627614
1.6217539 0.074620306 0.77825963
1.7628301 -0.32211873 0.34571382
1.6998466 0.091984093 0.48036808
1.7876337 -0.30647963 0.71604317
2.3399913 0.046386238 0.41873276
2.3429837 0.14880486 0.75334269
0.97815615 -0.044715378 0.29430643
0.99179959 -0.051056322 0.30627173
1.3955245 -0.013225303 0.726345
1.3860017 0.0080275927 0.72232252
1.3845323 -0.0081101684 0.69879234
1.4126092 0.19789051 0.78190213
1.5205671 -0.24831453 0.55906624
1.4793396 0.19176191 0.81638414
1.4964727 -0.026981667 0.74006027
1.5532831 -0.22359072 0.49079859
1.520046 -0.10006124 0.76450634
1.5530785 0.10278329 0.78786033
1.8426483 -0.30682316 0.56791288
1.5914494 -0.18569401 0.75096095
2.0470583 0.19912405 0.74195111
2.1773117 0.19718541 0.76536459
2.4118123 0.18420546 0.76523
1.2870414 -0.018199112 0.69711107
1.2900054 -0.019656925 0.7306236
1.2979127 -0.18360861 0.36936843
1.3015618 -0.054987732 0.71399361
1.3122863 -0.05729368 0.69002992
1.4894999 -0.010357276 0.84824163
1.3373926 0.092149436 0.76819015
1.3811176 0.13521999 0.7731263
1.5733149 -0.19078147 0.72015154
1.5646327 -0.25120932 0.85069209
1.5513177 0.1019257 0.85906887
1.6951703 -0.3309029 0.97738737
1.9093475 0.13206734 0.68907148
2.2687831 0.17925151 0.52141732
2.2333901 0.16939583 1.498101
1.345535 0.17632762 0.39359459
1.3224496 0.19742459 0.60063583
1.3089478 -0.079949148 0.72474921
1.3154558 -0.080986716 0.75560433
1.3196336 0.066798255 0.7501899
1.5227206 0.18065463 0.31589657
1.3157459 0.08591228 0.74128002
2.4768133 -0.5250268 0.86389863
1.6988437 -0.33897543 1.0109411
1.4740268 0.17593712 0.44394934
1.5514059 -0.25989908 0.3439768
1.4134991 -0.022937963 0.72250158
1.5223963 -0.2507478 0.4822996
1.5264161 0.16427632 0.6417945
1.6033241 -0.13154002 0.46786231
1.6168685 -0.11123956 0.79691523
1.8853422 -0.2439961 0.6020326
1.7142756 -0.33452302 1.1519339
2.2495799 0.17545612 0.46896991
2.258755 -0.47102422 0.62364805
1.302094 -0.05507395 0.71605992
1.3717042 -0.19883211 0.73030633
1.4762024 -0.0066945683 0.71889055
1.4738475 -0.006189472 0.717875
1.3575258 -0.20113325 0.37492639
1.3104321 -0.078781746 0.723643
1.3228453 -0.080945134 0.73372585
1.5452998 0.17915782 0.54595333
1.7192999 -0.17261966 1.2464083
1.5514944 0.23196338 0.96323317
2.3060944 0.27884102 1.7121252
2.634474 -0.22624557 0.28214589
2.5844665 0.22026393 2.0432823
1.4239807 0.1675455 0.58953512
1.4992752 0.17965649 0.54570848
1.5918652 -0.14578456 0.39317694
1.566151 0.25173295 0.5035817
1.4845296 -0.27722475 0.69576204
1.6318185 -0.1874063 0.418984
1.5333393 -0.036129206 0.67832315
1.5368304 -0.22281763 0.75966281
1.3725854 0.18136634 0.47805902
1.6419687 0.25495946 1.0235765
1.6826018 -0.3136068 1.3572431
1.7154971 -0.17232458 1.2422824
1.6665605 -0.30806467 1.3372304
1.696987 -0.31924036 1.3718904
1.7248595 -0.08224526 1.3017144
1.6996537 -0.18792133 1.3302859
1.6909339 -0.18817887 1.3327179
1.7014184 -0.24509554 1.3420357
1.7403917 -0.25305361 1.4199843
1.7140179 -0.24558343 1.3907515
1.7236341 -0.24966189 1.4035767
1.712694 -0.19192548 1.3851492
1.3564686 -0.17920458 0.76006222
1.4081072 -0.0011899896 0.74043113
1.3870994 -0.18694912 0.76457906
1.6086344 -0.25129467 0.53786421
1.5949676 -0.26543847 0.67563593
1.7672075 -0.19194041 0.52168894
1.6882558 -0.32675734 0.97524768
1.7199186 -0.38357401 1.0183203
1.7255944 -0.33975291 1.1630497
1.9426374 -0.27460963 0.65339196
2.0836737 -0.063336447 0.69489598
2.5311677 0.021274647 0.44387555
0.93972564 -0.026259435 0.38540897
1.0045563 -0.059656568 0.36696234
1.2946765 -0.019244744 0.73720562
1.3078425 -0.058514327 0.75238907
1.4077808 -0.0088472804 0.72110194
1.4165827 -0.0081424238 0.71430039
1.613598 -0.081743568 0.36428887
1.5263813 0.14276393 0.61230505
1.2934114 0.16843338 3.8010058
1.3204738 0.16878855 3.8343916
1.2637531 -0.52966928 3.833286
1.1081831 0.25263426 4.2382045
1.3448676 -0.096793763 0.75423205
1.3047158 0.018077465 0.76402825
1.5545713 0.010483538 0.81298304
1.5532562 -0.2260091 0.78217798
1.6491166 0.020739123 0.50176728
1.6695335 0.26523131 1.0446545
1.6321429 -0.31479836 0.96380228
1.7559631 -0.34511739 1.2325212
1.673244 0.046347331 1.2404207
1.6944722 -0.080663696 1.2778323
1.7056861 -0.082322791 1.2864294
1.7224824 0.019261258 1.3331573
1.7234576 0.01502383 1.3320131
1.7250957 0.016939793 1.3370486
1.6962807 -0.24377465 1.3365008
1.6880733 0.11360375 1.1760076
2.3460221 0.19581647 2.0469501
1.5366769 0.2073613 0.68768167
1.5189097 -0.091094002 0.78126222
1.607127 -0.17500582 0.71162963
1.6057215 -0.17444426 0.71125215
1.6219653 0.05930816 0.77467763
1.6417638 0.23514912 0.75098246
1.6243048 0.061272576 0.78168583
1.6798168 -0.32385516 1.1135119
1.6431103 0.049380213 1.2150527
1.7281308 -0.33740139 1.1837871
1.7298088 -0.33791542 1.1853068
1.7101537 -0.17198999 1.2383475
2.1139529 -0.41846269 0.60138845
3.0120468 -0.63263279 0.9895696
1.358596 0.18020074 0.53905272
1.2240644 -0.069984995 0.66856658
1.2947758 -0.048076816 0.72766793
1.6521372 0.028033091 0.78433126
1.9122466 0.13294804 0.68836612
1.7022467 -0.32938015 1.1938231
1.6989667 0.031663034 1.3022437
1.6912332 -0.44351619 1.2148019
1.6985651 -0.037439398 1.2991517
1.6992625 -0.034682427 1.3009565
1.6827517 -0.43030217 1.4237866
1.7178891 -0.46786588 1.4742833
1.7166364 -0.45031378 1.3342516
1.72087 -0.45169401 1.3850937
1.6807973 -0.31288084 1.3517208
1.721024 -0.22070347 1.4052876
1.7461536 -0.19778787 1.4237435
1.7318078 -0.19506095 1.4068086
1.7105494 -0.19349283 1.3863739
1.7040111 0.025073877 1.4949304
1.7176964 -0.46769238 1.4747344
1.7343973 0.046376068 1.5112724
1.6961603 0.044318147 1.5170341
2.3663182 0.15432757 2.1274073
3.2562711 -0.73925847 1.051826
2.5776436 0.21538566 2.0280011
2.4190066 0.16212197 2.1907046
2.6756959 0.13939847 2.4629645
3.0108559 0.19829968 3.0107517
3.0931101 0.24752195 3.1899066
1.4059722 -0.0068882094 0.78495079
1.5287859 -0.23636475 0.73176545
1.5861396 0.13916492 0.74042434
1.7216828 -0.45553017 1.2987759
1.705224 -0.036122408 1.3098767
1.7199467 -0.45518267 1.2962685
1.7299751 -0.46163946 1.3072187
1.7385497 -0.33231029 1.3760477
1.7317275 -0.45448294 1.3997927
1.7187264 -0.44496596 1.465199
1.7222711 -0.44716004 1.4324212
1.7032218 0.025398439 1.4952468
1.7020987 0.045867972 1.4791501
1.7264894 -0.4496952 1.4382591
1.7131236 0.039477848 1.4788306
1.7230601 -0.4858098 1.5250545
1.7211845 -0.48457554 1.5231483
1.707989 -0.45307228 1.585598
1.718928 -0.17899594 1.6720319
1.7369031 -0.44191635 1.6745385
1.7334708 -0.23688728 1.6944261
1.7567182 -0.32326621 1.7035381
1.7217699 -0.18142873 1.7027478
1.7255818 -0.20629489 1.7273866
1.7482897 -0.32117021 1.6913201
1.7406505 -0.18279076 1.7299731
2.4612312 0.1897839 0.77397418
2.4059141 0.161497 2.1692514
2.4362421 0.13124782 2.4983482
2.4236014 0.14004636 2.485976
2.553292 0.21070914 2.6173649
2.540555 0.20634912 2.6008451
2.6005623 0.21480261 2.6705604
1.7072167 -0.077040657 1.3035153
1.717266 -0.073624842 1.3131095
1.7070532 0.018944299 1.3207021
1.6715252 0.023135154 0.50397688
1.5917281 -0.15581982 0.71923357
1.4484037 0.19012368 1.1008009
1.6458346 0.026675783 0.78268182
1.4767874 0.19771814 1.1283598
1.4491624 0.18521199 0.53743428
1.4553696 0.18951814 0.79359442
1.7013057 -0.47724482 1.4994889
1.558802 0.1806684 1.7710123
1.7211608 -0.31296715 1.6547112
1.7131184 -0.23174763 1.6685909
1.7294536 -0.19418098 1.7054722
1.7125608 -0.50574255 1.6947951
1.737414 -0.44001636 1.7576643
1.7273179 -0.56192696 1.7643404
1.7292641 -0.43978184 1.7500578
1.7040508 0.049413685 1.851402
1.7410266 -0.51321828 1.8711582
1.7384434 -0.51319444 1.8704668
1.7125132 -0.16528015 1.9900932
1.7152953 -0.16241607 1.9891696
1.7208649 -0.40909871 2.019773
1.7371925 -0.10306013 1.9502364
1.7149458 -0.30043796 1.9611598
1.7970777 -0.13290054 2.1122477
1.7546786 0.12220562 1.9823241
1.7787246 0.0011855342 2.0967844
1.7657326 -0.063845269 1.9979967
1.7868686 0.11526954 2.0770762
1.7739838 0.12050985 2.0534186
1.7891101 0.11795818 2.0823059
1.7713112 -0.090399861 2.0785882
1.8144906 0.10679772 2.1280959
1.7871485 0.0831054 2.1404154
1.7384655 -0.25930569 2.1307185
1.7612227 0.12199516 2.1666059
1.7421389 -0.15688719 2.2020018
1.7630883 0.060955629 2.1959894
1.753479 0.060622416 2.1789229
2.525588 0.21046308 2.5904553
2.8547068 0.22002196 2.9147172
2.9537852 -1.2989944 4.5715451
1.6315762 0.068352893 0.79369038
1.6390682 0.039933164 0.78631729
1.9063417 0.130684 0.68758869
1.5047899 0.12459678 0.78791398
1.4841331 0.12374204 0.77329314
1.3323768 0.1737856 0.54066145
1.2913128 -0.01834557 0.70098484
1.3055005 -0.078686826 0.74165136
1.7292979 -0.10550612 2.0888443
1.7467232 -0.034661755 2.0917132
1.7483362 -0.31806764 2.161653
0.31013948 0.41920173 4.0366082
0.32961768 0.12742528 4.3478651
2.1920092 0.053067222 3.7207749
0.19773263 0.24840733 4.2952647
2.2910478 0.076918215 3.9131305
2.0906243 0.092677988 3.7513118
2.146256 -0.13547191 3.9087682
2.2558784 0.17409627 3.7604928
2.2227142 -0.25830975 3.8220727
2.4165194 -0.17763218 3.951329
2.1425929 -0.19526826 3.9479127
0.34390092 -0.27572668 4.330143
0.3396194 -0.29042995 4.3601341
0.94723219 0.24082877 4.2226329
0.57463157 -0.044617359 4.5146689
0.63098538 -0.69819182 4.5431967
0.64410949 -0.55512214 4.5847754
1.2814139 0.2645649 4.6392803
0.76481116 0.24211144 4.5704055
1.2692604 0.25426093 4.5774603
1.2582325 0.2501789 4.4684143
0.58458704 -1.019508 4.8354287
1.130127 0.2735883 4.6575656
1.3856 -0.44686139 4.6899443
1.3507494 -0.44862303 4.6885791
1.8296443 0.32986116 5.5331516
1.3829019 -0.48419705 4.9796224
0.80663556 0.1895102 4.9274216
1.2007785 -0.12998314 5.2384973
0.81767839 0.19029815 5.0773554
1.2251656 -0.64620274 5.0907049
0.84119773 -0.080186523 5.7024884
1.0430436 0.0082446504 5.2620997
0.81705451 -0.087066121 5.1896009
1.6071944 0.1823516 2.0956194
1.6981156 -0.42580292 1.6632866
1.5138452 0.19562545 1.9792987
1.6168777 0.15249176 1.9049407
1.7524048 0.054397635 1.7459719
1.6402513 0.15811291 1.9317255
1.6493429 0.18391564 1.9400332
1.7353704 -0.43534249 1.8139067
1.5979496 0.14762096 1.9907941
1.7273338 -0.3002311 1.973758
1.7097578 0.19959529 1.9454306
1.6751708 0.15974972 2.0104902
1.7267058 0.13589162 1.9861437
1.6534525 0.15891422 2.0818791
1.777743 -0.0028487272 2.0845749
1.7429252 0.13064487 1.9928203
1.7565392 -0.034607034 2.0025544
1.7839036 -0.037196122 2.0505972
1.7975796 -0.061792675 2.110841
1.7218242 -0.022452235 2.0335698
1.7500366 0.10963799 2.1830142
1.6395781 0.12456715 2.13451
1.6724602 -0.33667454 2.2583704
1.6345171 0.12659465 2.1319513
1.7842926 0.092987657 2.0649164
1.7597802 -0.097115017 2.1455991
1.6501412 -0.33085892 2.2238858
1.77946 -0.071960375 2.0903404
1.7261628 -0.20405841 2.1812007
1.7369411 -0.20443663 2.1995885
1.6857171 -0.30557704 2.2601459
1.6808368 0.20415087 2.4987242
1.7028081 0.21401387 2.5508039
1.6995555 0.21030077 2.5338335
1.6383548 0.15007213 2.467263
2.5375674 0.21141864 2.6117141
2.0623152 -0.27159908 3.870378
2.068491 0.178664 3.7545381
2.157104 -0.20309767 3.9626503
2.2262924 -0.27248713 3.8218024
2.1211102 -0.28711331 4.0208273
2.296006 -0.27706134 3.9802885
2.4234819 -1.1607293 4.2883425
2.9259324 -1.4772524 4.7188439
1.6979731 -0.51889944 1.9372953
0.98854828 0.20422444 1.621428
0.94037938 0.20305681 1.7702847
0.94460368 0.20731962 1.7887689
0.94956613 0.2097984 1.8021259
1.5892227 -0.15049744 1.8470632
1.4872556 -0.2061206 0.76327348
1.5096055 -0.22570546 0.77727836
1.5505772 -0.15211546 0.77638435
1.5487255 0.10468205 0.78488111
1.7683065 -0.034384608 1.2082509
1.7220858 -0.036559422 1.1817721
1.7130781 -0.010693424 1.1767429
1.7183018 -0.4566645 1.2435994
1.7205433 -0.46910074 1.3860455
0.72255403 0.1908188 1.1289902
1.7274131 -0.31795999 2.1486311
1.7535739 -0.32456815 2.1869411
1.761296 -0.045296744 2.1753583
1.7473962 -0.2844016 2.1772423
1.7676799 0.054083392 2.1180739
1.7634454 -0.066271819 2.0746758
1.7386162 -0.20408522 2.1968296
1.7371352 0.05783058 2.1370597
1.6667087 -0.33395249 2.2422924
1.4795393 0.16505039 1.998437
1.4887029 0.13388179 2.0536737
1.7083876 0.13311189 1.9595324
1.7498523 -0.29670537 2.0150785
1.7961204 0.082964875 2.0585685
2.3121319 -0.19912928 3.8937812
0.65139586 -0.71356076 4.5888867
1.391808 0.20610438 4.6185026
1.2844189 -0.41061234 5.103416
1.2431183 -0.88718194 5.0681562
1.3290105 -0.24531037 4.99895
1.3577986 -0.48521265 5.7696114
1.3031729 -0.87915713 5.2972636
1.3120953 -0.26361322 5.5905595
1.1375043 -0.65178865 5.2967286
0.83338982 0.19141515 5.368547
3.1802316 -1.4951434 5.0016208
1.2236923 -0.19354472 5.4203286
0.98598897 -0.14701335 5.6580091
1.2277983 -0.18438961 5.4993844
1.1889877 0.14969434 5.4023128
1.0998243 0.25945354 5.4047556
1.17909 -0.67987406 5.38694
1.294019 0.26096499 5.2781014
1.093209 0.25631967 5.3463826
0.82764566 -0.17166595 5.5856466
3.2633908 -1.4790468 5.2937112
1.1715157 -0.57730752 5.4045796
1.2995514 -0.95426518 5.3647218
0.26225385 0.15889253 2.9521699
-0.63524932 0.16995335 2.7623725
-0.64138186 0.21343096 2.8128614
-0.66444844 0.17648131 2.8182771
-0.65554518 0.17541409 2.7986832
-0.64523721 0.22082868 2.8171313
-0.67220062 0.22997198 2.8495259
-0.67910683 0.22302373 2.8670518
-0.63180566 0.19178259 2.8368495
-0.55833685 -0.79959887 3.0610018
-0.76391965 -0.15082216 2.952219
0.9887681 0.20299207 1.6196029
1.7510813 -0.21984756 1.9563326
1.7415156 -0.035221621 2.1568913
1.692906 -0.23021509 2.3260083
2.1445668 -0.2300169 3.4857492
1.2756963 -0.51945281 3.9895413
1.2718529 -0.67078733 4.0594096
1.2268875 -0.62940931 3.8597152
1.2804821 0.17984636 3.9245493
1.6017355 0.21508989 3.714798
1.9828516 0.093290202 3.799315
1.3124906 -1.0798924 4.1524916
1.2770452 -0.53719556 4.0873504
2.3124182 -1.0686814 4.0099854
0.57302916 -0.036439959 4.2054138
0.55800021 0.075670026 4.2147298
0.58324045 -0.045106966 4.4386072
2.266633 -0.2030537 3.9752722
1.1148682 0.26061022 4.4660072
0.52656573 0.26083493 4.3930969
2.0180166 -0.17763938 3.7625442
1.0899411 0.24576844 4.2396636
0.60125202 -0.19899002 4.6187696
2.3407154 -0.23015283 3.8289578
0.56147921 0.071906514 4.2087507
1.2980564 -0.55223292 4.2240081
1.664575 0.22838041 3.8700302
2.0804682 -0.24137081 3.9682274
0.53819191 0.25266737 4.4342422
0.54541689 0.23246965 4.1256132
2.2254264 -0.19739395 3.9102516
1.2902488 -0.55554527 4.1992245
0.33906585 -0.29163358 4.3950005
0.63475358 -0.69522059 4.5741782
2.1327546 -0.2595171 4.2828107
0.53320563 0.25644737 4.4905114
0.57444775 -0.93856049 4.5432868
0.56776696 -0.9781667 4.696054
1.4842389 0.26485485 4.7724171
0.58022237 -1.0163687 4.8247094
2.6627288 -1.3817705 4.5200825
2.3181722 -1.470345 4.860074
1.39262 -0.094892509 4.9427738
1.2225541 -0.43391025 4.9246387
2.1188049 -1.2683642 4.5877995
1.2307316 -0.48617271 5.0753641
1.4095142 -0.25043675 5.0852242
1.292753 -0.71255887 5.2205362
2.3206985 -1.4758459 4.8696108
1.3270948 -0.70176536 5.0455332
1.7638694 0.039018568 2.1945324
1.6714751 0.12707412 2.1737475
1.7233534 -0.3412047 2.3404493
0.51452059 0.12154903 4.0187025
2.0377865 0.2033565 3.8708851
1.2654493 -0.64992654 3.9585438
1.2593852 -0.64747125 3.9327579
2.1996167 0.16575658 3.6534448
0.34485322 0.11360558 4.2038584
0.3182666 0.2448837 4.0863175
0.51226717 0.34123492 4.0851421
1.70926 0.24991897 4.1521006
0.53472751 0.15101536 4.30022
1.949219 -0.060374122 3.7819915
2.134042 -0.18620183 3.6821992
2.2251971 -0.19214086 3.8685939
1.5810239 0.21523036 3.6173031
1.8714889 0.24141841 3.6068993
0.27367541 0.25147682 4.0714669
0.91331273 0.22167803 3.7591312
1.2226617 -0.61757869 3.8271196
-0.21571966 0.14530635 3.352488
-0.18265106 -0.041403595 3.37075
-0.43997851 0.11990616 3.2336829
-0.49849358 0.17981899 3.3595612
-0.56542659 -0.07232248 3.6119354
-0.51897001 -0.070167199 3.5075965
-0.026006805 0.39613551 3.4232605
0.098162316 0.23322828 3.7779014
-0.50438982 -0.066467851 3.471097
-0.49318674 -0.058423907 3.4282362
0.10209654 0.20860921 3.7489746
-0.23014314 -0.085246205 3.5586982
-0.47945282 0.24769844 3.4320655
-0.078557223 0.049880225 3.5872664
0.10172366 -0.70649743 3.5615282
-0.49012947 0.24636887 3.4870858
-0.059135851 0.026859043 3.5262825
1.238562 -0.48941597 3.8668921
-0.065462932 0.40764761 3.6182356
-0.033032466 0.21999489 3.6906865
-0.027928546 0.2074637 3.6834617
-0.0062847547 0.030203896 3.752872
-0.025392102 0.14172623 3.6648755
-0.061170027 0.21247908 3.6399307
1.220803 -0.61925876 3.8373678
-0.016672591 0.030938955 3.7578976
-0.049853832 0.032570906 3.9190416
0.071605295 0.15077123 3.8985569
-0.12315874 0.042548694 3.9116664
-0.71356529 0.10621199 3.7968047
-0.71488672 0.10527898 3.807339
0.046823557 0.11321667 3.9635956
-0.70916051 0.10365708 3.7866545
0.33552915 0.12030989 4.1536322
-0.089373 -0.023023842 4.2433944
1.1048285 0.26144859 4.4053206
-0.83373457 -0.74550408 4.591455
0.77054828 0.1574799 4.6917548
1.9964514 -0.19412214 3.8732858
2.2187893 -0.2550008 3.7086895
2.4262996 -0.1792468 3.9803009
1.9858084 -0.19100319 3.8332772
2.0618253 -0.24145845 3.9368627
0.22004832 0.23307008 4.307653
2.2040598 -0.19041829 3.8755457
0.65227461 -0.54100907 4.5296474
0.30069408 0.25770348 4.2698903
1.301945 0.18252894 4.0821753
0.56959873 -0.043429695 4.4667792
0.51381958 0.35441071 4.1489329
2.2572539 -1.0317847 3.8838916
0.74454981 0.24774042 4.5767817
0.6218015 -0.33235767 4.4306602
0.81772447 0.22566143 4.6011863
0.55744725 -1.0576363 4.966362
0.85970205 0.25801313 5.1759439
0.7786684 0.16560481 4.8692527
0.59866279 -1.0279394 4.8540058
0.82647651 0.24233359 4.8116231
0.80184722 0.15689665 5.3427138
1.2281466 0.084521264 4.8613095
0.77616143 0.15617976 5.8616242
1.3398867 -0.70593846 5.0749631
1.1268837 -0.61251777 4.9681525
1.3537076 -0.16101547 4.8967705
1.1431116 -0.62377572 5.0522342
0.8322463 0.15162581 5.3537574
1.1781037 0.004352659 5.2536321
0.79019386 0.17687842 5.1599956
3.2755096 -1.4901189 5.1665473
1.155239 -0.65434837 5.2339668
1.1602277 -0.63620573 5.063097
0.81341207 -0.22661977 5.3168063
0.84121531 -0.27610815 5.6342087
3.1804585 -1.5066577 5.0543332
1.2931535 -0.3253026 5.3062525
1.2237874 -0.24460982 5.0725613
1.2468408 -0.42040142 5.7352791
1.1456016 -0.54887831 5.188467
0.80752367 -0.29975635 5.1396432
1.1846931 -0.61778134 5.5711451
1.152722 -0.56406194 5.2969337
0.72483259 -0.085306071 5.7800741
1.1553751 -0.56448704 5.2779527
0.83695489 0.14839549 5.5582004
3.1919036 -1.5154757 5.0832572
1.2532905 0.27826369 5.7916827
1.2041885 -0.44531235 5.5997009
1.1869196 -0.63787913 5.4710488
1.197549 -0.65225595 5.6285048
-0.45900446 0.12483205 3.3110225
-0.62381881 0.20951733 2.3496425
-0.55351937 0.15945148 2.4359739
-0.58441198 0.15245812 2.4353631
-0.54450077 0.15139568 2.4219189
-0.68615156 -0.77804196 3.0646162
-0.6829474 -0.22500707 3.1725128
-1.2222794 -0.18001285 3.2612939
-0.75977963 -0.86720598 3.1102719
-1.0569125 -0.22195268 3.0784152
-1.0202801 -0.15382896 3.106308
-1.2832719 -0.34904173 3.1428123
-0.77174389 -0.038596194 3.3322966
-0.074088328 -0.96855527 4.5763655
-1.3549515 -0.11042701 4.8326221
-1.1212044 -0.210555 4.3527617
-1.0895419 -0.53731692 4.5039048
-1.1403947 -0.5502497 4.609777
-0.71847194 -1.018422 4.7077951
-1.148688 -0.5539639 4.6112208
-0.99447298 -0.89373994 4.5239582
-0.96881056 -0.91149813 4.4850998
-1.0340946 -0.92424446 4.5731235
1.2830344 -0.86413217 5.1270189
1.3011729 -0.17692739 5.1256495
1.1947795 -0.062717304 4.7998047
1.3435497 -0.9242928 5.4991641
-1.1258863 -0.66200596 4.6199551
1.3036094 -1.0379596 5.4561777
0.81773341 -0.15963615 5.5124769
1.1542317 -0.49910131 5.4529123
1.1652687 -0.36801898 5.3867116
0.81828338 0.15616336 5.4550176
0.8249203 -0.15846896 5.4307847
0.22420774 0.94817114 5.095264
0.82557452 0.78809714 5.6996112
1.3809519 -0.96302104 5.7880783
1.1616483 -0.63775307 5.4907627
0.055233929 0.21990556 1.7469814
-0.62044716 0.15154718 2.2846367
-0.53769118 0.18130796 2.3391595
-0.62359065 0.15088834 2.3518138
0.21289894 0.20905611 1.9322546
0.39692262 0.20544614 2.3528168
0.38025367 0.24462892 2.7103612
-0.22302115 -0.075670145 3.2440283
-0.65082961 0.10729269 3.4490283
-0.54594731 0.23227228 3.2171853
-0.57699317 0.10829096 3.2628679
-0.36725745 0.037492279 3.3444102
-0.60745019 0.10888774 3.3330886
-0.640158 0.11456989 3.4023271
-0.36829787 0.035783373 3.3344417
-0.40302369 0.03457335 3.4296098
-0.67075795 0.061978035 3.417671
-0.93454176 -0.46903479 3.1950653
-0.73451954 0.056242254 3.524513
-0.0066252276 0.027606135 3.7503273
0.97291023 0.25968274 4.3231235
-0.72121119 0.054350197 3.4904776
-0.023980478 0.027298644 3.8274741
0.3278859 0.12096441 4.1228995
-0.9255017 0.030226719 4.046145
0.33943042 -0.22095335 4.3169847
-1.0022094 0.046483506 4.2282915
-0.90636331 0.037784327 4.018208
0.65599817 -0.5419113 4.5338006
0.34212127 -0.45913345 4.51577
0.35167181 -0.43915141 4.4468193
0.28508374 0.45360762 4.4132528
1.2272074 -0.59494489 5.0329423
0.31093124 -0.63497847 4.7642894
0.31053412 -0.64381242 4.8351107
0.31401637 -0.64614183 4.8233142
-1.142795 -0.18035306 4.2461433
0.91378587 -0.32621926 5.0062752
-1.1343563 -0.55991316 4.6248493
-1.1862564 -0.22457497 4.4864101
-1.1789901 -0.23089954 4.4583979
-1.1210643 -0.81011707 4.7612691
-1.2639387 -0.11519545 4.6686497
-1.1627741 -0.89545989 4.8609285
-0.98306918 -1.0025423 4.8405061
-0.74556226 -0.14893675 5.2745223
1.0174489 -0.33127984 5.3842711
1.0381751 0.0094925603 5.2267485
0.99684423 -0.33057159 5.1286263
-1.1786705 -0.5412541 4.6516123
-1.1669518 -0.10629985 4.4685345
-0.95743173 -0.98316872 4.7484593
0.82256997 0.1122853 5.5675492
-1.2655276 -0.12020691 4.6899247
0.74013913 -0.027486974 5.7927456
-1.5917139 -0.53189355 4.7020192
-1.4822022 -0.5011363 4.5305533
-1.7254435 -0.51926529 4.8435984
0.049618784 0.22378699 1.7601863
0.051458813 0.22292838 1.7561443
-0.20952837 0.21275194 1.695492
-0.69660062 0.21623208 2.0406768
-0.74492335 0.21798295 2.0026541
-0.7477001 0.21831337 2.0034199
-0.6553694 0.21173978 2.1910472
-0.61227751 0.21863884 2.2569911
-0.65784675 0.095909208 2.2173705
-0.61449128 0.20919499 2.2460499
-1.2552196 -0.096785381 2.4905515
-1.2499063 -0.10209811 2.4906485
-0.77597916 -0.14402527 2.9748299
-0.22073704 0.23791461 3.2711005
-1.3303456 0.080698714 2.5683308
-0.19452363 0.14175393 3.276196
-0.13140409 0.0086124437 3.4368713
-0.60362577 0.10334651 3.1844668
-0.17608626 0.11212033 3.476649
-1.0390977 0.07156495 3.1113613
-1.4821024 0.093491569 2.9455514
-1.5539776 -0.17768401 2.792309
-1.5584445 -0.17574461 2.7946343
-0.90815294 -0.30738869 3.1178083
-0.95531255 -0.30107507 3.1749749
-1.532297 -0.16179888 3.0833714
-1.501668 0.084101036 3.038321
-1.3998718 -0.15057701 2.9478612
-1.5738944 -0.60007393 3.0332813
-1.6223418 -0.66678005 3.0424647
-1.5024371 -0.15601312 3.0663855
-1.6541378 -0.64990121 3.0454793
-1.6120814 -0.66767627 3.0293727
-1.5778183 -0.60506815 3.0409691
-0.20953409 -0.12584749 3.7720189
-1.6136185 -0.67159015 3.0407195
-1.5608746 -0.49192399 3.0059698
-1.4953212 -0.15906751 3.0417249
-1.6370595 -0.62916851 3.0841346
-1.5732191 -0.60143548 3.0423911
-1.6657367 -0.68017685 3.0819635
-1.548983 -0.69905144 3.0833721
-1.6028976 -0.50359428 3.0543816
-1.5023198 -0.13793832 3.3663621
-1.5084432 -0.22963063 3.3680453
-1.5553415 -0.68622363 3.0599132
-1.5247333 -0.21888877 3.4603877
-1.4330478 -0.12939394 3.3415318
-1.5597326 -0.56585073 3.2592034
-1.5607636 -0.70705998 3.2538943
-1.4465226 -0.12997344 3.3586605
-1.5758816 -0.71704727 3.2909803
-1.7489778 -0.54684985 3.6452992
-0.66638273 0.053069565 3.3807611
-1.5615698 -0.65305901 4.0455608
-0.050106596 0.19937229 3.6905649
-0.67683172 0.063103028 3.459043
0.063751712 -0.75197166 3.7241356
-1.3676778 0.090566963 3.4381156
-0.88456547 -0.94962507 3.3367274
-1.3700497 -0.35774127 3.2263696
0.093946993 0.21314383 3.8148184
-1.3192946 0.10934 3.420758
-1.5596315 -0.56786209 3.2503543
-1.589818 -0.5797801 3.2853723
-1.5411296 -0.39062092 3.4492967
-1.3129997 0.10182093 3.3897438
-1.4680673 -0.12903027 3.4040585
-1.4229749 -0.1262015 3.338443
-1.4215567 -0.12619756 3.3296385
-1.600646 -0.49889958 3.4421196
-1.4354478 -0.1256046 3.3573048
-1.5674208 0.052305833 3.4738765
0.55634218 0.11407579 4.1964478
-1.4897573 -0.12134711 3.4273183
-1.6204286 -0.22186501 3.5575645
-1.0049431 0.13496077 3.7146912
-1.3202392 0.1091115 3.3516355
-1.6613631 -0.32817569 3.5939865
-1.7288352 -0.23119688 3.6959522
-1.5289763 0.10182948 3.6342552
0.074069262 0.14402825 4.2726436
0.31610861 -0.61602396 4.6497402
-1.3495564 0.17065518 4.4588995
-1.4580151 0.097779639 4.5534711
-1.1507903 -0.21814835 4.4166026
-1.2943189 -0.0085029397 4.2613492
-0.67558676 0.2155996 1.8206978
-1.3769956 -0.47027972 2.1774535
-1.3306876 -0.47318098 2.2121069
-1.3339291 -0.47508606 2.2131321
-1.3249565 0.11940233 2.215354
-1.3061421 -0.41176471 2.2337031
-1.3461746 -0.42673084 2.2628977
-1.3335601 0.068107985 2.3860486
-1.4804307 -0.19262239 2.7021763
-1.3594288 -0.43195397 2.4064302
-1.3299617 0.054723781 2.3824124
-1.3523275 -0.41647604 2.32689
-1.3329116 -0.19537349 2.3867714
-1.3152831 -0.36203122 2.4721844
-1.3497885 -0.30169854 2.5638206
-1.3880843 -0.52440047 2.5144801
-1.3705266 -0.37886944 2.4669931
-1.4192749 -0.39428911 2.5587773
-1.3327731 -0.4305636 2.4786918
-1.4200492 0.082583003 2.6618869
-1.3457106 0.086667322 2.5795126
-1.3324656 -0.42558175 2.4796429
-1.3788548 -0.38075197 2.4759951
-1.3527056 -0.37779337 2.4642344
-1.3638047 -0.50804728 2.528182
-1.0012678 0.09363807 3.0904195
-1.4564567 -0.54120773 2.6024978
0.8539772 -0.2971938 5.4613285
-1.105126 -0.8653332 4.7150817
0.79431087 0.13730545 6.0439587
0.77243334 0.062539734 5.9315076
-1.5796611 -0.17944135 2.8154163
-1.3825712 -0.1297394 2.9435759
-1.594707 -0.60912156 3.0484781
-1.6319747 -0.67957097 3.0643063
-1.466615 0.058285672 3.4084787
-1.5282142 -0.70481277 3.2374952
-0.9201625 -0.04127847 4.1162691
-2.1915791 -0.59175557 3.5086119
-1.1344795 -0.83668256 4.7886848
-0.95236748 0.2066313 1.6832956
-0.95724005 -0.23053002 1.6335766
-0.98660207 -0.11112881 1.7288923
-0.96806008 -0.24194857 1.6461596
-0.95822883 -0.0080392025 1.6978395
-0.96447664 -0.23681094 1.6418561
-0.96935791 -0.0074501769 1.7051667
-0.76724958 0.14258321 2.009105
-0.55218768 0.20360874 2.1684709
-0.63857555 0.16023633 2.231426
-0.73282212 0.20609352 2.1414247
-1.5752424 -0.57189953 3.2671793
-1.5540961 -0.57266158 3.2466075
-1.3678173 0.07950332 3.5417099
-1.812374 -0.5667417 3.7264857
-0.93015474 -0.040906794 4.1370082
-0.62436306 -0.95312107 4.4516978
-2.3805125 -0.62989259 3.7029583
-2.2977984 -0.61153859 3.6272461
-2.2995808 -0.60927147 3.630301
-2.3448665 -0.61611092 3.6802485
-1.1110823 -0.89432317 4.7308931
-1.0430751 0.36940792 4.9246116
-0.71024835 0.21621992 2.0599725
-0.74930847 0.21669313 2.018245
-0.81329602 0.2146471 1.9272404
-0.74272168 0.21662864 2.0033796
-0.74312508 0.21781692 2.0024269
-0.76597631 0.15927473 2.0252538
-0.63402742 0.2103665 2.163765
-0.64294559 0.21635039 2.1742475
-0.65138811 0.094153665 2.2092447
-0.62993562 0.097398125 2.1873815
-0.5131163 0.2047084 2.3162258
-0.99143845 0.081771456 2.140408
-1.2358602 0.24216348 1.990054
-1.3697443 -0.43877044 2.0005741
-1.2174294 0.20248371 2.0689168
-1.4003432 -0.47688043 2.0555773
-1.2037783 0.20053524 2.0539145
-1.3663572 -0.46806785 2.1022031
-1.3190781 -0.23978205 2.0800099
-1.3653398 -0.25363511 2.1067367
-1.3419477 0.059509147 2.0865109
-1.2614244 0.19982281 2.1157138
-1.3323809 -0.24570943 2.0871916
-1.4105134 -0.25306204 2.1405115
-1.3411297 -0.24904615 2.0879128
-1.3443097 0.052360058 2.1001232
-1.3300962 0.053823929 2.0769763
-1.3416353 -0.47757262 2.2082636
-0.8868953 0.19650286 1.6378257
-0.95421761 -0.22621514 1.6291727
-0.94089675 0.2072271 1.6711425
-0.92547786 0.20353989 1.6566559
-0.77334791 0.21865557 1.957852
-1.3600316 -0.43529707 2.2019374
-1.3463999 -0.43140098 2.1940298
-1.8028253 0.1265166 1.7084168
-1.3190892 -0.19173899 2.3749826
-1.3519168 -0.082837358 2.5902166
-1.3941803 -0.5195657 2.5367236
-1.3368205 -0.18748939 2.5488451
-1.3210202 -0.075903036 2.558445
-1.3937848 -0.42958713 2.5337443
-1.4241769 -0.53054124 2.566432
-1.3894343 -0.38293764 2.4824879
-2.0411992 0.046994645 1.8444687
-1.4889181 0.1031168 2.9489989
-1.5614223 -0.10795687 2.9263227
-1.5738081 -0.49519199 3.0198014
-1.6142058 -0.72226089 3.1588411
-0.69687808 0.20705134 2.1093113
-0.68569535 0.2019318 2.0923183
-0.67546898 0.20156574 2.0796819
-0.5670386 0.20311007 2.2787631
-1.1223531 -0.44467416 1.7288951
-0.60607582 0.15920722 2.2909336
-0.54613996 0.20844105 2.3528006
-0.56769347 0.22101903 2.3749738
-0.52406693 0.2016217 2.4370263
-1.3915806 -0.095536478 1.6582425
-1.3414091 0.18662171 1.7062647
-1.3395563 0.18973783 1.7087138
-1.3905717 0.17904916 1.717863
-1.3845299 0.19189566 1.6919873
-1.4243076 -0.56684858 1.8438573
-1.3561159 -0.43334869 2.0641778
-1.2650325 0.19901644 2.123431
-1.3255546 -0.24836031 2.0786664
-1.2797477 -0.40937999 2.0135283
-1.3576556 -0.43353242 2.0642991
-1.371534 -0.46717885 2.1043243
-1.3392974 -0.42717478 2.1888156
-1.3575724 -0.4344703 2.2714496
-1.3822206 0.076574974 2.4275165
-0.6663776 -0.13981581 2.9589267
-2.0044193 -0.27299234 1.8408706
-0.98603088 -0.15284939 3.0583358
-1.455633 -0.54273498 2.6030033
-1.4909571 -0.11594134 2.7398689
-1.1512619 0.074126035 3.2821357
-1.6745632 -0.52619362 3.1308715
-1.1195731 -0.87050617 4.7474041
-1.3827915 -0.11915541 4.8845048
-0.66357255 0.21477087 1.8127451
-0.94145954 -0.058093537 1.6586565
-0.6376285 0.16270837 2.2273462
-1.0258855 -0.16772899 1.765216
-1.1950084 -0.22575213 1.6957208
-1.1964689 -0.22515938 1.6950083
-1.1999817 -0.22570713 1.7003765
-1.3449012 -0.34833097 1.6766204
-1.3553503 -0.35458812 1.7159107
-1.3732399 0.094268344 1.6966454
-1.1554959 0.23205511 1.9337177
-1.4480598 0.091280855 1.7229404
-1.3875688 0.19675283 1.6919227
-1.5169195 0.042726416 1.7212858
-1.492996 -0.089095354 1.7108964
-1.498459 -0.089339383 1.7131079
-1.2733828 -0.33028176 1.9116803
-1.3256649 -0.24872452 2.076298
-1.3483838 0.053220544 2.1025848
-1.350212 -0.45917434 2.0901866
-1.3655953 -0.43715376 2.0671103
-1.3346268 0.075672977 2.0763576
-1.3212321 0.11875976 2.2121716
-1.3253472 0.055364255 2.3792393
-1.362223 -0.48631063 2.3918853
-1.313887 -0.1853151 2.524132
-1.5367718 -0.17784786 2.9161859
-1.5159262 -0.20899956 2.9099095
-1.5390127 -0.21151772 2.9342408
-1.7909086 -0.69132674 3.1471376
-1.8354094 -0.70706159 3.193357
-1.6790907 -0.55011582 3.4108253
-2.785521 -0.74942881 5.8447795
-0.82075715 0.21016024 1.380177
-0.66709435 0.21209629 1.8128817
-0.90321618 -0.18828012 1.4904219
-1.0211787 0.20153001 1.3887687
-0.94205612 0.0182695 1.6571466
-0.93593729 -0.2604484 1.6459602
-0.96426791 -0.062503286 1.6746062
-0.97844929 -0.23777393 1.655602
-0.70615178 0.11678233 2.0973985
-0.73432487 0.14628518 2.0655849
-0.63687599 0.096593261 2.1897273
-0.91629392 -0.19280165 1.4921021
-0.90586036 -0.19021165 1.4903218
-0.67135185 0.21374069 1.8160988
-0.67653155 0.21501267 1.8205886
-0.91719258 -0.21760046 1.6073111
-0.92270488 -0.21850245 1.6088737
-0.94413787 0.14734313 1.6612523
-0.93804455 -0.22773473 1.6339293
-0.95067519 0.21077856 1.6491429
-0.94316 0.204469 1.6800828
-0.94056034 -0.044268712 1.6537189
-0.95035613 -0.31939772 1.6654896
-0.96191114 -0.12021242 1.7080019
-0.97058314 -0.11262158 1.7166287
-0.79760534 0.18913059 1.9339173
-0.67687356 0.18882169 2.0633118
-0.71354783 0.13846536 2.0835435
-0.81211537 0.19157957 1.9416093
-0.81444848 0.19173172 1.9468231
-0.66202629 0.11563866 2.1412866
-0.66639686 0.15830928 2.1707885
-0.81551856 0.20879267 1.3784391
-0.87021905 0.24619752 1.5457112
-0.99344224 0.20112349 1.2627419
-0.96775067 0.17556286 1.3540424
-1.0387331 -0.25242361 1.2759405
-1.0503376 -0.25828537 1.2776134
-1.0448461 -0.28224397 1.2696549
-1.0310065 -0.25098673 1.2740277
-0.92988455 0.021281155 1.6543832
-0.7403332 0.21677963 1.9947146
-0.92648792 0.029498093 1.650768
-0.94379717 0.092967436 1.6610246
-0.94734037 0.15327148 1.6457288
-0.94601446 0.072687492 1.6621999
-0.93538749 0.20096697 1.6438992
-0.93220341 0.07222005 1.6558205
-0.93549484 0.095788822 1.6583697
-0.94052207 0.21172203 1.6464363
-0.95398176 0.076013066 1.6655898
-0.94162017 0.073669069 1.6602607
-0.94300503 -0.31314412 1.6629937
-1.0409354 -0.33825812 1.6685348
-0.87137604 0.096630156 1.9563202
-1.0135648 0.21680716 1.9779115
-1.2681013 0.20689176 1.6160685
-1.4897835 -0.44784477 1.4453812
-1.4823043 -0.44363031 1.4464564
-1.4837483 -0.44391647 1.448217
-1.3229176 -0.34736431 1.7056768
-1.4774147 -0.08655946 1.5022889
-1.4736062 -0.084923133 1.5062128
-1.4778191 -0.084674291 1.5083734
-1.3682929 0.17615579 1.696032
-1.2442555 0.21675095 1.968372
-1.2076941 0.19902284 2.0548856
-1.4634953 -0.44397897 1.573367
-1.3489904 0.18161869 1.7370439
-1.4765416 -0.21496505 1.5163715
-1.4861293 -0.17361516 1.5839298
-1.4712946 -0.47834399 1.6842097
-1.4740758 -0.184129 1.5602551
-1.4624543 -0.47686407 1.6802669
-1.4767157 -0.45007864 1.6467745
-1.4151222 0.039428223 1.6854131
-1.2243453 0.20295329 2.127296
-1.3265043 -0.3916342 1.9633024
-1.335628 -0.38690761 1.971742
-1.5343013 0.15829946 1.6820219
-1.4925075 0.15267168 1.6700703
-1.3510951 -0.25218865 2.1061707
-1.3471631 0.052125663 2.1035502
-1.3161131 -0.24609217 2.0763803
-1.2354574 0.18568467 2.1620369
-1.3622153 -0.39512628 2.169271
-1.3042216 0.12329315 2.2142823
-1.3713187 -0.51506031 2.1142724
-1.3320316 -0.45728824 2.2131364
-1.2969871 -0.41177866 2.2963822
-1.3201396 -0.52408487 2.2537546
-1.3657809 -0.41887531 2.2151713
-1.3280392 -0.50455385 2.3610535
-1.3193038 -0.36095715 2.4837761
-1.3583146 -0.37699533 2.4539042
-1.4133737 -0.40907946 2.2031956
-1.8233851 0.039992932 1.7760882
-1.9159018 0.21203448 1.6663004
-2.0401504 0.21436593 1.5644896
-1.5778725 -0.4981454 3.0327377
-3.0629253 0.19648613 1.806722
-2.4165521 -0.79719877 2.9337611
-0.7667098 0.15617879 2.0320168
-1.317963 -0.39583606 1.7053226
-1.4204074 -0.36704907 1.7511449
-1.4228196 0.050567597 1.6890415
-1.373955 -0.35416013 1.7295362
-1.4667822 0.049527794 1.7016739
-1.4347208 0.21606202 1.7123016
-1.3426656 -0.43192598 1.9848371
-1.3532048 -0.46072102 2.0214186
-1.3362514 -0.45468408 2.0116575
-1.2894558 0.093380578 2.208766
-1.3499022 -0.43149492 2.0581203
-1.3495548 -0.50641316 2.0985508
-1.3646297 -0.43601704 2.1364613
-1.3364859 -0.24490087 2.0920715
-1.3519995 -0.46246138 2.1602676
-1.3500456 -0.46047711 2.1597178
-1.3551762 -0.5095644 2.1714492
-1.3368827 -0.42587256 2.1853943
-1.3535408 0.054423973 2.3961041
-1.348176 -0.43010592 2.3980215
-1.895491 0.041226055 1.7530667
-1.9274912 0.043115456 1.7678084
-1.510689 -0.20255774 2.9011199
-1.5894175 0.12261296 3.5903432
-1.0414277 -0.25516513 1.2761216
-0.92264342 -0.21829177 1.6093149
-0.93343842 0.15000464 1.6368272
-1.0614102 0.20202877 1.3168074
-0.96280247 0.21688548 1.657281
-0.94841588 0.096608177 1.664274
-1.0465776 0.20260333 1.3138938
-1.0524865 0.2068157 1.3969672
-0.93950355 -0.26261595 1.6494704
-0.94995457 0.040511671 1.6628463
-0.96511292 -0.10959424 1.7218064
-1.0654262 -0.29701814 1.4800144
-1.0705215 -0.19355254 1.6952547
-1.2508988 -0.17624693 1.5515211
-1.178968 -0.22321773 1.6826005
-1.2661577 0.035419274 1.5595391
-1.3620404 0.18966532 1.0191257
-1.3636076 0.20511633 1.0602007
-1.2455028 -0.12958343 1.5028327
-1.3794611 0.19419217 0.99185073
-1.3898631 0.19285853 0.99265528
-1.388299 0.14131117 1.0367416
-1.3959554 0.2099409 1.0588535
-1.333059 0.18940832 1.7116311
-1.3275629 0.21127479 1.7117182
-1.3433293 0.2148912 1.7200794
-1.3807088 0.2010089 1.7378104
-1.3979715 0.045486335 1.5925831
-1.4706113 -0.17885081 1.2361647
-1.453329 -0.43625474 1.2841086
-1.5725734 -0.010656817 1.0683862
-1.4737903 -0.20496643 1.2770678
-1.4663641 -0.2037936 1.2721696
-1.4652057 -0.20288357 1.2204175
-1.4592365 -0.18930691 1.4497987
-1.4618243 -0.18029572 1.2383051
-1.665042 0.10971314 1.0710734
-1.4575075 -0.49719399 1.6321701
-1.5308584 -0.45918137 1.2264894
-1.4861845 -0.46528745 1.6371768
-1.4803318 -0.19953635 1.4606309
-1.5631642 -0.22021906 1.1145239
-1.6918943 0.11310977 1.0737835
-1.4932588 -0.50777221 1.8018521
-1.6436644 0.21760517 1.1348107
-1.4937743 -0.19014899 1.538449
-1.5331867 -0.22384749 1.6955431
-1.9318588 0.19949299 1.5118569
-1.9950217 0.19961286 1.3930951
-2.0050087 -0.02530268 1.0056876
-2.0228035 0.20088583 1.5962166
-2.152709 0.16775294 1.3678247
-3.4168403 -1.0176884 0.49606168
-2.9214971 0.048746321 0.98839492
-2.9899406 0.19380347 1.7914358
-1.2093164 -0.21945278 1.6780506
-1.1897764 -0.2252661 1.6941645
-1.4607658 -0.17904681 1.2364773
-1.4502782 -0.17961511 1.2397103
-1.4717543 -0.17906041 1.2642961
-1.4684182 -0.20313953 1.2767545
-1.4601542 -0.13929804 1.2736995
-1.4667907 -0.21554209 1.340192
-1.4652714 -0.21368609 1.3386289
-1.3905902 -0.35701644 1.6922867
-1.4720056 -0.21602759 1.338878
-1.4670026 -0.073416777 1.3383236
-1.4778025 -0.085955575 1.3934193
-1.4753448 -0.049317978 1.420745
-1.4766614 -0.19976918 1.4603537
-1.4385103 -0.1691462 1.5682106
-1.513552 -0.22004925 1.5227348
-1.5095921 -0.45502853 1.4911283
-1.4824755 -0.44961703 1.5753639
-1.4762672 -0.46254495 1.6315213
-1.6247352 -0.0016940022 1.3748194
-1.8684608 0.1329625 1.6136655
-1.3231355 -0.4691281 2.2002878
-1.3719631 -0.51576531 2.0475416
-1.3255527 -0.45157591 2.1409645
-1.3966202 -0.4743481 2.1230106
-1.3669381 -0.51329821 2.1771295
-1.5258026 -0.051970217 1.8124582
-1.3213446 0.052759256 2.3672478
-1.4120086 -0.40818775 2.2068591
-1.3472342 -0.49753222 2.4925795
-1.8911581 0.20557354 1.6459428
-1.6886835 0.051525008 1.695619
-1.7035589 0.035644166 1.6828531
-1.7955197 0.053155851 1.7331049
-2.0655231 0.16680747 1.3705893
-0.88574904 0.20365469 1.2124391
-0.96361238 0.18994935 1.2437479
-0.97688407 0.19926757 1.2418221
-0.92188263 -0.21726523 1.5903674
-1.4611362 -0.071182482 1.1952695
-1.4537262 -0.17829028 1.2553617
-1.2801553 0.19952281 1.6885777
-1.6374846 0.11015934 1.0817101
-1.5550907 0.1067358 1.0871028
-1.3436502 0.11996745 1.6596392
-1.4571173 -0.076450735 1.1973026
-1.4831147 -0.078334108 1.2005409
-1.4737349 -0.071237385 1.3426788
-1.3769108 -0.35248461 1.6716448
-1.4520869 -0.20831661 1.3459948
-1.7040507 0.11425917 1.0747544
-1.5217675 -0.45733857 1.2261622
-1.4706992 -0.14435068 1.3542532
-1.4755439 -0.44556141 1.4154679
-1.3864589 -0.41702914 1.6752554
-1.396015 -0.41479287 1.6709298
-1.5146004 0.20646027 1.0973374
-1.4758992 -0.18258379 1.353963
-1.4530635 -0.13983227 1.2669792
-1.4814228 -0.18557762 1.5649651
-1.3974726 -0.46699718 1.6802466
-1.3854941 -0.43594053 1.6700217
-1.3945158 -0.43941748 1.6721873
-1.4018224 -0.4196505 1.6784471
-1.5588293 0.15981162 1.1602373
-1.4168218 -0.18734193 1.6800706
-1.499878 -0.21910481 1.5193782
-1.4183594 -0.43222338 1.7522804
-1.4785296 -0.033956144 1.3540076
-1.3077675 0.05178012 2.0705907
-1.4707663 -0.025708139 1.7209642
-1.4926682 -0.46809715 1.6399331
-1.3681055 -0.43696913 2.2779934
-1.4935789 -0.52710867 1.8138204
-1.4490173 -0.11805174 1.7812335
-1.5833908 -0.12610692 1.8403246
-1.9291767 -0.018620646 1.138097
-1.8965616 -0.018421423 1.1099207
-1.7633806 -0.15519409 1.9314538
-1.9439135 0.20065494 1.5160174
-1.5800935 0.031222504 1.6379719
-2.0010583 0.20789865 1.5206237
-2.6002262 -0.86154306 2.8065982
-0.89606094 0.20520973 1.2080386
-0.89807683 0.20559414 1.205809
-0.95847374 0.18704723 1.2420541
-0.95935291 0.19027138 1.2443343
-0.98625696 0.20017807 1.2502491
-0.92562109 0.19877623 1.6376289
-0.94760215 0.04438258 1.6648042
-0.93108875 0.19888562 1.6480131
-0.93311965 -0.0960254 1.651492
-1.0474195 0.20210353 1.3135333
-0.93318677 0.26355982 1.588995
-1.047563 0.20027615 1.3142101
-0.92036211 -0.12910527 1.6532755
-0.97874874 -0.31152338 1.639683
-1.1753429 0.20858239 1.1738743
-0.97202814 -0.059968725 1.723609
-1.0370089 -0.18402462 1.6734879
-1.1321341 0.22912639 1.9205571
-1.3398669 0.21114053 1.7097762
-1.01808 0.2075464 0.98853701
-1.0672189 0.20887816 1.3996407
-1.3549951 0.048464034 0.77316785
-1.40026 0.19021302 1.0237827
-1.4681479 -0.10822023 1.2171929
-1.4670579 -0.49008691 1.2118258
-1.4738232 -0.19414707 1.1123104
-1.5291884 -0.22376175 1.5328456
-1.4887149 0.0046447339 1.3713958
-1.6195638 -0.069278784 1.0660424
-1.6306381 -0.013508713 1.0694609
-1.494125 -0.4460519 1.4852455
-1.5535692 0.16000241 1.1562502
-1.5626227 0.11509087 1.1676021
-1.9548947 0.210594 1.6636443
-1.971782 0.20571497 1.553164
-2.0375078 0.15980093 0.6294688
-2.0699558 0.063757949 0.56140083
-2.0196941 0.14943375 1.4028455
-2.0622764 0.21078189 1.4172328
-2.1235449 0.14377221 1.3979801
-2.1190422 0.14449833 1.4013224
-2.049655 0.15372805 1.4041377
-2.1527727 -0.076806352 0.97527808
-2.4474528 -0.70680493 0.51333714
-2.2434134 -0.72100574 0.60552394
