# .PCD v0.7 - Point Cloud Data file format
VERSION 0.7
FIELDS x y z
SIZE 4 4 4
TYPE F F F
COUNT 1 1 1
WIDTH 1450
HEIGHT 1
VIEWPOINT 0 0 0 1 0 0 0
POINTS 1450
DATA ascii
1.0406868 -0.025709858 0.81493992
0.91753352 -0.0068020737 1.0979102
1.067748 -0.1902876 0.86047131
1.0843515 -0.11266539 0.88703454
1.0566437 -0.21848375 0.92879593
1.0600369 -0.19527823 0.9406665
1.1052567 -0.054644417 0.8308568
1.1019049 -0.24545546 0.86475813
1.0582278 -0.2617678 1.0450119
1.0561975 -0.22127526 1.0494363
1.0553391 -0.1826693 1.0723171
1.0836357 0.0075651375 1.1131525
1.6332718 -0.11403638 1.6152228
0.95151097 0.026978878 0.80848438
1.0035107 -0.02810598 0.81662637
1.0403224 -0.31648469 1.3429525
1.0450674 -0.1302132 1.3959384
1.0577319 -0.13191648 1.4085592
1.0837752 -0.3561278 1.415828
1.4043591 -0.11237515 1.6384468
1.0634731 -0.18615024 0.83053112
1.0878054 -0.15113379 0.87134993
0.83021069 -0.0054534343 1.264782
1.082214 -0.12716809 0.89749563
1.0610104 -0.27110919 1.0434556
1.0545421 -0.13856252 1.0785506
1.0588725 -0.15620722 1.2734647
1.0555977 -0.32433143 1.3526025
1.0516679 -0.30163774 1.4665159
1.0544266 -0.36261317 1.5457878
1.0462333 -0.29911986 1.4585418
1.0285408 -0.31334111 1.3643489
1.0382104 -0.31674778 1.3715316
1.0662447 -0.17253843 1.5382046
1.0993611 -0.13326506 1.5151845
1.1192067 -0.051766571 1.5268192
1.0960623 -0.21361254 1.589678
1.0380026 -0.11896903 1.5424219
1.1109133 -0.23887828 1.6039253
1.1144855 -0.096916668 1.4888097
1.0743604 -0.19174437 1.5895733
1.0438527 0.025312411 0.84242213
1.0212061 -0.13523598 0.94025844
1.0784264 -0.13925344 0.82733935
1.0730364 0.037617858 0.84700906
1.0940536 -0.19774675 0.8391344
0.91906875 0.02268295 1.1100479
1.0417627 -0.1404627 1.0197089
1.0389305 -0.13910864 1.0207957
1.0506471 -0.31340247 1.1193424
1.0840287 -0.15521559 1.2434707
1.0324702 -0.35260502 1.520478
1.0838391 -0.18958175 1.5504336
1.0380932 -0.16885133 1.5171872
1.0597976 -0.28605738 1.5825096
1.1103894 -0.30980369 1.655007
1.0651355 -0.29380402 1.6031224
1.0862898 -0.19951461 1.64169
1.1264839 -0.12742466 1.6435331
1.2002583 -0.14620325 1.4046508
1.1073912 -0.22006974 1.6023884
1.1366274 -0.27687025 1.664562
1.6426628 -0.13075423 1.9701197
2.2047122 -0.49284655 1.0352451
1.0417025 -0.087205164 0.85663712
1.0644517 -0.16820438 0.8854993
0.9184221 -0.031380717 1.1021208
1.0430419 -0.24122955 0.88654196
1.069953 -0.19392098 0.85528153
0.80483925 -0.0053927549 1.2406877
0.82961208 -0.0053611584 1.2673421
1.0798113 -0.11302952 1.4187471
1.0400603 -0.119221 1.5427332
1.0568067 -0.18765362 1.5298254
1.0668352 -0.17022337 1.5328026
1.0873836 -0.16929045 1.5737588
1.085753 -0.12926461 1.6028413
1.0867445 -0.19468285 1.6029261
1.0915055 -0.19972712 1.646045
1.0899537 -0.19954157 1.6457639
1.1388372 -0.25871909 1.6715751
1.1229631 -0.23627931 1.7567227
1.0520813 -0.38558698 1.6693432
1.0643708 -0.073996462 1.6612811
1.0517005 -0.13145521 0.9529618
1.0828555 -0.085206822 0.94968879
1.0384628 -0.13623916 1.0589873
0.95061278 -0.29761133 1.5144053
1.0418197 -0.13335127 1.4796014
1.0467758 -0.38868898 1.6744026
1.0780051 -0.18823111 1.7095791
1.1191362 -0.20254521 1.8260304
1.0787621 -0.15512133 1.697866
1.1002166 -0.16564804 1.7146062
1.1029934 -0.13020335 1.7294018
1.1200773 -0.16837768 1.7335182
1.1012952 -0.02638186 1.7185407
0.86243629 -0.043047316 1.1084247
0.84758699 0.025960945 0.91277206
1.0470406 -0.21381582 0.91743743
1.0671716 -0.15947263 0.95430601
1.0515283 -0.11661973 1.0237489
0.83747053 -0.017801877 1.281597
1.0628502 -0.16883321 1.5282346
1.0676037 -0.1949003 1.6392217
0.51578248 -0.034683656 0.90670466
0.99684381 -0.12512712 1.0618515
1.1050956 -0.33177987 1.1119645
1.1650954 -0.082989752 1.1096629
1.0318263 -0.28801355 1.623799
1.045936 -0.069631346 1.7371014
1.0905004 -0.1599665 1.7081963
1.1067575 -0.13602015 1.7931659
1.2470109 -0.080874518 1.844726
2.1018782 -0.35909012 3.4571581
2.1461034 -1.0120665 3.6764033
2.2208521 -0.89550102 3.8203728
1.0497113 -0.071977571 0.9281823
1.0684824 -0.38381219 1.4471414
1.0606773 -0.38018909 1.4378753
1.0587653 -0.29011148 1.5531816
1.0712117 -0.22078772 1.6253451
1.0618305 -0.095229872 1.6732341
1.0957757 -0.24777985 1.6918473
1.1404506 -0.14321439 1.7717488
1.0828633 -0.22551166 1.7095109
1.3067969 -0.060796697 2.1084776
1.5785021 -0.13145499 2.2816222
2.3159554 -0.40105265 3.7783401
2.1904631 -0.88264436 3.7691936
1.0546104 -0.22072324 0.92578793
0.93114126 0.027908457 1.1088094
1.0567348 -0.42240927 1.5961012
1.0844007 -0.43489188 1.6253947
1.0117897 -0.28440073 1.6900895
1.0825727 -0.22563398 1.710415
1.1033452 -0.052030005 1.7712593
1.0834465 -0.24890211 1.6809889
1.1116306 -0.15582596 1.7582039
1.2665182 0.14194281 2.1311955
1.6797223 -0.10399472 1.6401938
1.0018573 -0.10790284 1.1205575
0.80510592 -0.0077621578 1.2456012
1.0232115 -0.12427676 1.1930054
1.0718199 -0.18652675 1.6848958
1.1030412 -0.16394743 1.717502
1.5181823 -0.44576111 2.1767685
1.7657408 -0.056435544 3.4240112
2.1682742 -1.2074212 3.9512541
2.1455312 -0.63166755 3.6569479
2.3618531 -0.82459617 3.8889673
2.1331677 -0.66845131 4.0968118
1.9846283 -0.84425408 3.4710865
2.0361881 0.27678657 3.7564998
2.5228531 -1.1285975 4.0548663
2.548486 -1.1431569 4.1050725
2.4149714 -0.77130657 3.9602044
1.0026901 -0.20708859 1.0253444
1.0516477 -0.11369351 1.1379275
1.5212406 -0.3800585 3.0201807
1.5165386 -0.32389438 3.0308166
2.0576468 -1.0127046 3.9237168
1.8081242 -0.055613071 3.5031068
2.0492308 -1.0643349 3.7469704
2.0261075 -0.67669708 3.941741
2.0610752 -0.96321839 4.1462302
2.1106651 -0.81676131 3.8391807
2.0892444 -0.70027763 4.0511608
2.036962 -0.8645469 3.8959537
2.0908074 -0.79025596 3.9893289
1.0497828 -0.1463379 1.026453
1.0548338 -0.24683139 1.0490887
1.0601696 -0.20277949 1.0702173
1.0617064 -0.38068783 1.4384509
1.0686008 -0.090664916 1.6010385
1.0272056 -0.36447611 1.6677185
1.0918262 -0.2395788 1.5809956
2.0952868 -0.21340328 3.342684
2.1019974 -0.029329136 2.0515966
1.8314774 -0.9476015 3.2374427
2.4122095 -1.1217704 4.0713816
0.55760115 -0.032642048 0.9381454
1.0970176 -0.29888338 1.5476933
1.1369811 -0.31006053 1.5829343
1.0876464 -0.092896745 1.6612682
1.0986857 -0.23560292 1.6610137
1.0870299 -0.19332315 1.7219428
1.1932988 -0.029505856 1.8666335
1.339214 -0.14888945 3.0404351
1.5877712 -0.24662836 3.1327336
1.6328324 -0.73743814 3.6862316
1.8719059 -0.90606362 3.3031142
1.7274323 -0.75254136 3.8920634
1.7001228 -0.75552368 3.277668
2.1550951 -1.2017813 3.9307203
2.0050645 -0.94937295 4.0366459
2.1380794 -1.2410221 4.044322
0.95362037 -0.36816266 1.7073127
1.4147385 -0.4616271 3.1920497
1.5384767 -0.46383071 3.8258283
1.5409026 -0.75937772 3.8293812
1.5311329 -0.76002568 3.8050263
2.1194715 -0.67031115 4.074894
1.9443098 -0.65201354 3.8572047
1.1581689 -0.36798504 1.7214868
1.9856439 -0.20328467 3.1883881
1.4533288 -0.11596933 1.6770462
1.3259181 -0.71755749 3.5480397
1.6090299 -0.50971663 3.8930361
2.0697591 -0.66786611 3.9842772
2.1947775 -1.2189653 3.9927847
0.43512511 -0.019605229 0.96574318
0.8984462 -0.0085496772 1.0928447
1.0686159 -0.22321066 1.0520016
1.1323034 -0.27716783 1.6665066
1.229884 -0.71764857 2.8815782
1.3074241 -0.32781151 2.9775865
1.9214309 -0.99953157 3.3882523
1.6871209 -0.41200733 3.1513031
2.0129402 -0.84725338 3.6601999
2.2451892 -0.32962713 3.6500752
1.9762743 -0.36701867 3.6059427
2.1978993 -1.1364837 4.0002074
1.8728907 0.65019065 3.5614011
2.0856438 -0.90338939 3.9525919
2.099026 -0.80228221 3.8141866
2.1853464 -0.87844002 3.7337151
2.4923546 -1.1343535 3.9634135
1.0908117 -0.022137253 1.5638127
1.097167 -0.092270628 1.6328043
1.2141412 -0.12570335 1.5411086
1.2241244 -0.098012201 2.0149386
1.6997392 -0.49224272 4.0965753
1.2792004 -0.65434659 3.5865791
1.3512381 -0.73260736 3.59744
1.6260711 -0.97836936 3.3002098
1.5776204 0.11643378 3.9216754
1.5670525 -0.73945922 3.9518402
0.45464611 0.018365612 1.0586867
0.46392289 0.020429974 1.0692531
0.45894858 0.019765435 1.0629357
1.0103093 -0.2884393 1.4293618
1.0522847 -0.34595725 1.387761
1.2014918 -0.30772182 1.9424351
1.2511134 -0.10840482 1.5958598
1.0648494 -0.30972371 3.3355796
0.95614004 -0.59309781 3.0315266
1.5558234 -0.38534701 3.0687788
1.7021164 -0.32405981 3.0449851
1.3350812 -0.69754696 3.2324874
1.0242357 -0.16882636 3.1732399
1.2338151 -0.79422647 3.4853332
1.0984893 -0.33065575 3.4045222
2.2660029 -0.91619414 4.251883
2.5291648 -0.79920119 4.0888934
2.2798202 -0.89463496 3.8366039
2.1746371 -0.87531161 4.1022916
2.3691909 -1.321086 3.8228567
0.41010454 -0.036769439 0.88262683
0.4101609 -0.036775842 0.88308281
1.0634378 -0.19085129 1.5935893
1.1052403 -0.30824825 1.5615617
1.0362319 -0.28852734 1.6366147
1.1295987 -0.13422978 1.6085238
0.82038724 -0.75098652 3.1324308
0.88509369 -0.50753307 3.0415399
0.98129034 -0.3427048 3.1358871
0.9353202 -0.72115153 3.3864946
0.91486412 -0.70533299 3.3145084
0.93811983 -0.90310836 3.4541006
1.5750407 -0.32975489 3.2458985
1.0913262 -0.20203072 3.2201688
1.3405384 -0.600591 3.587445
2.2212451 0.38210499 3.6940446
1.5749429 0.74728203 4.8370004
1.0065416 -0.32518545 1.2324896
1.2069443 -0.099233225 1.477888
1.0924342 -0.23329818 1.5824987
1.0982064 -0.24408823 1.6938159
1.1028539 -0.22074907 1.7338928
0.81415886 -0.74388671 3.1065598
0.84049529 -0.34050232 3.0168004
1.2364779 -0.80702651 2.8804059
1.9621284 -0.20020744 3.1459053
2.2473707 -0.34578475 3.6482503
2.1621585 -1.0178467 3.7091916
1.0749444 -0.3739574 1.3592573
1.1309927 -0.13922426 1.4572603
1.0940522 -0.19809891 1.6475655
1.2087269 -0.38534689 1.7762613
0.96749145 -0.087861136 2.5207708
0.98536855 -0.56037784 3.1081815
0.970676 -0.74369353 3.2938864
1.2478776 -0.8954376 3.4071548
1.9052755 -0.21439047 3.2792013
2.2431993 -0.94865799 4.053091
2.0744994 -0.82762456 4.1132669
1.0242668 -0.33325407 1.3201232
1.043415 -0.34031907 1.3353961
1.0155021 -0.22038971 1.4046016
1.030411 -0.42430449 1.5695472
1.1390545 -0.20462181 1.6518853
1.154461 -0.032648999 1.8077444
1.1512909 -0.029338542 1.8056135
0.78907925 -0.63972652 3.069593
0.81524098 -0.55118918 3.0101578
1.4956396 0.25887337 2.4582646
0.6951884 -0.27472788 3.1060455
0.93650693 -0.5793258 2.9731796
1.5977838 -0.22346957 3.1689761
0.96990597 -0.54654384 3.077142
1.6691306 -0.64411831 4.0728106
1.4873487 -0.72507542 3.8327005
1.8583263 -1.1424773 3.7280505
2.2373915 0.6453138 4.3864942
1.2867714 -0.25276816 3.6079209
1.9945704 -1.2026865 4.011272
1.5635904 -0.46619791 3.8962326
1.094418 -0.097110711 1.4703614
1.1236448 -0.022546038 1.5840253
1.0662266 0.035290893 1.6919881
0.61538267 -0.26893097 3.100631
2.2180867 -0.33138415 3.4988666
0.75949389 -0.79817456 3.1601238
1.1517456 -0.22404753 3.3843608
2.2654071 -0.92661417 4.2632194
2.0723667 -0.68943864 3.7816069
1.4712825 -0.16270137 3.1518502
2.1210806 -1.1211121 3.8674881
2.1701441 -0.80276531 3.6502895
1.6046456 -0.63825303 3.957855
2.1988606 0.3082445 4.0106783
2.1229758 -0.90216327 3.6726041
2.129009 0.31048265 4.1817307
0.9776243 -0.2314136 1.4644744
1.1128206 -0.12874694 1.6857955
0.50641203 -0.49537957 2.6562955
0.7220825 -0.34862605 3.0631092
0.83825696 -0.44746709 2.9726286
0.73805881 -0.82590282 3.1978028
2.1691678 -0.8336727 3.7123988
1.7710321 -0.98457599 3.2499151
1.5483334 -0.39284381 3.8883789
0.48216856 -0.66951472 2.5878239
0.69982994 -0.089354157 2.5445077
0.65634561 -0.30776283 2.7841322
0.63356405 -0.52478689 2.9958284
0.56802237 -0.52312922 2.8842902
0.85966724 -0.48278004 2.9615581
0.71699983 -0.79142594 3.1041737
2.0429723 -1.0066035 4.089036
0.33770818 -0.1257962 2.6737635
0.74554491 -0.69023699 3.1869478
1.55068 -0.50911623 3.8677468
2.2177773 -0.84338719 4.2050571
1.075784 -0.096589923 1.7069613
0.37540594 -0.68129987 2.5779295
0.26125172 -0.32368764 2.5877604
0.29460737 -0.49487984 2.6172919
0.33577353 -0.56430048 2.6348422
0.5346719 -0.10389974 2.7798533
1.2544178 -0.88575238 2.9174902
1.525016 -0.34100905 3.177438
2.21807 -0.23166963 3.5011182
2.0170047 -0.3373633 3.2498925
1.1585394 -0.20756896 3.6302052
1.0589523 -0.09570545 1.6837687
1.7482687 -0.97029531 3.2115068
1.6055686 -0.92968851 4.0146518
0.14129977 -0.65073484 2.581172
0.37831375 -0.70218891 2.6595037
0.20834218 -0.14399447 2.6378286
0.29333144 -0.49446419 2.6178997
0.1314968 -0.31562424 2.6522009
0.13709655 -0.39243388 2.6902578
0.2098593 -0.17259447 2.6355782
0.20840873 -0.35133076 2.5805283
0.30166906 -0.74198663 2.8264954
0.79665035 -0.53382206 2.9410725
2.2353392 -0.2385865 3.50284
2.0410988 -0.11549647 3.089874
1.5920843 -0.62955976 3.882535
2.2683251 0.30965784 3.7657192
2.5448885 -1.2107389 4.0786529
0.10172065 -0.0905063 2.6297693
0.20443141 -0.36305594 2.6164484
0.3340213 -0.55666572 2.6020641
0.13253975 -0.1022164 2.6483569
0.58193332 -0.12227464 2.876199
0.60405594 -0.32998106 3.0889604
1.3059716 -0.58505118 3.5064509
2.2112608 -1.1314839 3.9550059
1.9618702 -0.3561624 3.5794277
-0.12865062 -0.71529645 4.3127499
1.9391329 -0.35822463 3.5303247
2.0302126 -0.89417273 4.0792322
1.6293579 -0.54316425 3.6335669
2.5464909 -1.2085832 4.078227
0.20826238 -0.57230181 2.566911
0.29022363 -0.40904254 2.5782285
0.42004389 -0.42234477 2.6066644
0.14742297 -0.091716424 2.6249597
0.42296728 -0.44681329 2.6272123
0.33491132 -0.56061184 2.6276598
0.74701428 -0.1304727 3.1086032
1.3020183 -0.30450997 3.0224357
0.59546888 -0.12303343 2.9716187
0.83014977 -0.7522819 3.1637552
2.1822784 -0.42959973 3.4419706
2.162971 -0.42741266 3.4253743
1.3199542 -0.8088786 3.5388272
1.7330396 -0.20176201 3.1463966
1.5768181 -0.64421397 3.836879
2.1871812 -0.880265 3.7362599
1.9880589 -0.99053973 3.9430239
1.7023129 -0.42765445 4.2312684
0.33624202 -0.56210494 2.6103356
0.55067313 -0.096111491 2.5717928
0.64794964 -0.42937419 3.0429401
2.1692176 -0.22566336 3.4324419
2.0503743 -0.89275527 3.7002921
2.1940639 -1.1221055 3.9297094
2.1833804 -0.96501738 4.351696
1.2330195 -0.36972725 3.4854474
2.0500333 -0.88256216 4.120966
0.87282038 -0.43412697 2.8175638
0.29459298 -0.49177665 2.6042404
0.53454655 -0.29070652 2.7340508
0.42334634 -0.43453789 2.6467633
0.33473629 -0.26488096 2.5933456
0.20741752 -0.33327767 2.8430898
0.58155751 -0.41679591 2.9996479
0.92287666 -0.48800439 2.8990176
1.1133749 -0.14774197 3.1627769
1.8151945 -0.43020186 3.270448
0.95719075 -0.54936206 2.9801881
1.6109529 -0.36339319 3.3007798
2.8543944 -1.0927398 4.1779776
1.3575957 -0.63927305 3.7729824
1.8664331 -0.26649857 3.3964436
1.6246072 -0.4843443 3.8714547
1.9636823 -0.65438181 3.8637381
2.4424591 -0.78537005 4.0012779
2.1443977 -1.0230013 4.2382064
0.75045848 -0.34910223 3.0676301
1.413237 -0.51370537 3.3605685
1.9812629 -0.37257487 3.5919058
1.9947594 -0.95072889 4.0076385
0.13290358 -0.093835048 2.7446103
0.10234981 -0.088809252 2.6128755
0.14772333 -0.52708799 2.6243191
0.13407111 -0.52139693 2.6291058
0.42628178 -0.47777066 2.6452353
0.10557874 -0.11886985 2.8393211
0.34320351 -0.2021981 2.6528838
-0.020108821 -0.23848525 3.1101253
0.97896451 -0.23333968 3.120316
-0.014918138 -0.19788621 3.142781
1.0834939 -0.21121904 3.2156682
-0.14333336 -0.43070468 3.8103538
-0.15020719 -0.44102335 3.868125
1.5285921 -0.75219458 3.8528447
2.0341661 -0.67912513 3.9581892
-0.26093462 -0.37111616 4.536921
0.49503833 -0.38872537 2.6664267
1.2116773 -0.14769025 2.9556832
0.5909766 -0.37163049 2.8706641
-0.0055282852 -0.37377408 3.2012787
0.58101141 -0.24020201 2.9397607
1.3012762 -0.15058142 2.9880764
1.2119824 -0.41725117 2.8441288
1.3496757 -0.34393877 3.6157813
1.018345 -0.8110593 3.4184852
1.2365961 -0.32902721 3.5065713
0.79453015 -0.81955552 3.3578417
-0.29737473 -0.60704023 3.8011863
1.2414942 -0.7011348 3.4872882
-0.17077646 -0.76392311 4.6184716
-0.10511337 -0.61185968 4.0897713
-0.12497213 -0.61336857 4.3024278
-0.13444306 -0.61251855 4.3845301
1.6142536 -0.94905818 4.0744619
0.67047572 -0.315211 2.8524439
0.22411913 -0.27297145 2.638622
0.2153129 -0.15119742 2.6099997
0.12806728 0.022708908 2.6902065
0.2934278 -0.47971237 2.5760624
-0.19388404 -0.25775215 2.983284
-0.27274185 -0.19103532 2.9925082
0.67630744 -0.12758078 3.0926392
-0.10049252 -0.19512141 3.0918672
-0.28975821 -0.58340693 3.417788
-0.028163776 -0.23859158 3.1305866
0.77783126 -0.78577375 3.2920105
0.78757417 -0.3290492 3.1932678
-0.010307453 -0.37875497 3.2267928
-0.2348426 -0.7382344 3.1671376
-0.37007323 -0.48645091 3.2774851
-0.4127228 -0.70429009 3.2321723
-0.14744934 -0.13119578 3.146136
0.75539148 -0.71930999 3.2652352
-0.0043756645 -0.36656684 3.3834813
1.270167 -0.60068262 3.5674438
-0.29548013 -0.72300941 3.3748333
-0.32562196 -0.65296549 3.5574265
-0.30126876 -0.5160827 3.4242861
-0.32459402 -0.53914815 3.5241373
-0.32492882 -0.65681261 3.558053
-0.32108137 -0.64487296 3.5381799
0.151003 -0.39130023 2.6720834
0.29362309 -0.48784256 2.6106462
-0.25066441 -0.10164761 2.6134486
-0.39179873 -0.15811561 2.6852467
0.6803295 -0.32038212 2.8980117
0.57558513 -0.24791646 2.8589704
-0.26010668 -0.20520693 3.0488522
1.1259708 -0.20607372 2.9903979
0.85558236 -0.44312516 3.1545026
0.81221187 -0.54482228 2.9939663
0.73432726 -0.72522831 3.1234155
-0.3022041 -0.73554534 3.4330602
-0.27900922 -0.40366817 3.3867011
1.0179349 -0.78356981 3.4337347
-0.30224299 -0.5737108 3.4448998
-0.32548842 -0.48482096 3.5649123
1.6674718 -0.84891206 3.9631841
-0.46224931 -0.28755978 2.5915544
-0.39162317 -0.16012776 2.686271
-0.46984136 -0.29536071 2.6152906
-0.50535965 -0.30703932 2.6905053
-0.53813356 -0.28228575 2.7216747
-0.50262558 -0.18938214 2.6538243
-0.52887422 -0.27931041 2.7019835
-0.28967506 -0.17180379 2.718029
0.61710984 -0.38130772 2.9468329
-0.31047243 -0.17775801 2.7874889
-0.28166547 -0.10400744 2.6997004
-0.0070421151 -0.37277406 3.0587347
-0.1974196 -0.611682 2.9655261
-0.30184057 -0.19827297 3.0998781
-0.69931996 -0.35347068 2.9567518
-0.40780565 -0.41221312 3.2275186
-0.26129645 -0.67661691 3.271528
-0.27548859 -0.67194653 3.3403559
-0.70687991 -0.21055865 3.2296495
-0.37449723 -0.52805638 3.2795594
-0.76728821 -0.22097586 3.3590553
-0.31896979 -0.75433284 3.5018933
-0.35753614 -0.75010943 3.7019353
-0.29456925 -0.5398801 3.7611091
-0.37884718 -0.1607454 2.6659164
-0.47213075 -0.30011737 2.6330538
-0.50488979 -0.19339673 2.6605179
-0.75871372 -0.11500634 2.699477
-0.76713723 -0.11122991 2.7099884
-0.71735024 -0.2797578 2.8150451
-0.85334861 -0.11760525 2.7032576
-1.0072551 -0.30216873 2.9296768
-0.93711698 -0.40108353 2.886704
-0.84875524 -0.38408259 2.9877732
-0.8410908 -0.3840099 2.9802046
-0.96509886 -0.41814396 2.9285731
-0.023074079 -0.38872501 3.4109793
-0.38042921 -0.77136564 3.2126713
-0.034202658 -0.39643353 3.3544791
-1.0687462 -0.75696415 3.130338
-1.0562133 -0.75143951 3.120929
-1.0520494 -0.74653167 3.1101158
-1.1771953 -0.1958887 2.9996808
-1.068103 -0.75549436 3.1308568
-0.41651312 -0.7080459 3.2395906
-1.1775692 -0.208253 3.1524093
-0.28345776 -0.45374158 3.4017558
-0.3533093 0.27057475 3.9671073
-1.2637385 -0.74599397 3.6214006
-1.3196713 -0.77234435 3.7117457
-1.3663961 -0.79295671 3.7811081
-1.9060706 -1.0189545 3.9633279
-1.8919356 -1.0076921 3.9479969
-1.9595214 -1.0231671 4.0379901
-1.5060146 -0.86079878 4.0033913
-0.24639595 -0.028775971 1.7444137
-0.31008118 -0.024220455 1.7286856
-0.32399881 -0.025831863 1.74716
-0.31549168 -0.026962986 1.7376481
-0.31924671 -0.025895631 1.7427667
0.71294284 -0.098294958 1.7714293
0.41420019 -0.4830454 2.5999219
0.96753424 -0.087109141 2.5140431
-0.32361776 -0.02545888 1.7517788
-0.75908369 -0.1762365 2.7004941
-0.77827752 -0.17071743 2.7344763
-0.84975231 -0.11821707 2.6910005
-0.98166823 -0.35530484 2.7794077
-0.18931697 -0.2161921 3.1003273
-1.2258006 -0.10578727 2.6156268
-1.2664392 -0.10479188 2.670537
-1.2636029 -0.1045612 2.6645477
-0.84676719 -0.38513297 2.9842148
-1.031621 -0.82434165 3.0718639
-1.2091824 -0.18651854 3.026094
-1.5131743 -0.16307272 2.7744679
-1.1896901 -0.14412226 3.0597835
-1.0675398 -0.84859228 3.1300595
-1.1445808 -0.1355813 2.9829712
-1.2116535 -0.45525432 3.1409311
0.08910647 0.1588034 2.7532394
-1.8202813 -0.3515124 3.1144137
-1.852536 -0.3648397 3.2572987
-1.9209427 -0.41679201 3.1920929
-1.9774153 -0.37973788 3.2633145
-1.9931247 -0.42768607 3.2650244
-2.0400834 -0.50729692 3.3597305
-2.2787912 -0.41940019 3.5347385
-2.4868979 -0.75506616 3.6786971
-2.4702427 -0.75239652 3.644552
-2.5724349 -0.77728552 3.7580347
-2.5946028 -0.87531489 4.1050396
-2.7995951 0.60075474 4.0901823
-2.5892174 -0.88710624 4.200799
-2.5787973 -0.86121947 4.0775805
-2.8057094 -0.92641312 4.3188415
-2.9477465 -0.97696316 4.3429613
-2.8870807 -0.95338261 4.2687402
-0.34654814 -0.0060637374 1.4976156
-0.34186026 -0.0094263032 1.492978
-0.34810013 -0.0072225686 1.4962903
-0.24678563 -0.029335897 1.7431301
-0.45759702 -0.011084586 1.4139385
-1.1194702 -0.033422429 1.568655
-1.3286951 -0.060740989 1.7787058
-1.4590095 -0.058285128 1.8491738
-1.5147306 -0.059967801 1.8781147
-1.4300721 -0.058788836 2.0070367
-1.569126 -0.12663603 2.1362762
-1.7172421 -0.65199637 2.0347579
-0.87038296 -0.19296022 3.0479977
-1.6914713 -0.64176011 2.0218368
-1.6160855 -0.27135253 2.0974565
-1.6317977 -0.39737514 2.025352
-1.6480525 -0.38980734 2.0445452
-1.6977532 -0.39942282 2.0712676
-1.5730578 -0.41970357 2.3835216
-1.6741817 -0.39803663 2.0568831
-1.9531282 -0.55319858 1.9675896
-1.1310896 -0.20093472 3.0878549
-2.0484703 -0.66146052 2.0048065
-1.9858633 -0.56292129 1.9709488
-2.0491226 -0.57536656 2.0090034
-1.6692555 -0.23771282 2.8352799
-2.0799003 -0.11453277 2.4994018
-1.7854869 -0.25560832 2.866353
-1.9419366 -0.8936668 2.7675538
-2.3334708 -0.64775997 2.2002676
-1.9691956 -0.85900593 2.6645598
-2.0283611 -0.1802685 2.7653167
-2.261132 -0.47720006 2.6588998
-2.1233563 -0.64626384 2.9983208
-2.3076844 -0.48488697 2.6916461
-2.455869 -0.62994128 2.6070769
-2.3849244 -0.61490488 2.5617886
-2.2500036 -0.51279587 2.5705726
-2.3968365 -0.54488146 2.6632211
-2.4892039 -0.59789151 2.792937
-2.3888316 -0.65307468 2.8971217
-2.4858167 -0.98186642 2.79387
-2.5384512 -0.78854996 3.0203161
-2.71363 -1.0479029 2.9676905
-2.643667 -0.98901242 3.0735047
-2.2898653 -0.75400347 3.9782758
-2.3218839 -0.76394504 4.0103493
-2.5844669 -0.85428047 3.6726837
-2.3656352 -1.3324348 5.3813953
-1.6859984 -0.082874507 1.3503337
-1.6796796 -0.38449046 1.3857032
-1.6285717 -0.087994933 1.3383787
-1.6750605 -0.37879655 1.3872797
-1.672787 -0.38303247 1.3846059
-1.6110921 -0.23299018 1.5841736
-1.6088351 -0.23321655 1.5818645
-1.607258 -0.23364237 1.58487
-1.1585863 -0.017053703 1.4315159
-1.3150438 -0.012387147 1.4852184
-1.4532074 -0.040190745 1.6473939
-1.7012736 -0.54876107 1.6340061
-1.6334628 -0.14720257 1.6089946
-1.5158712 -0.056593321 1.9752439
-1.7063197 -0.47116101 1.5916339
-1.720435 -0.35571757 1.5936236
-1.7260503 -0.35464197 1.6000347
-1.6958178 -0.54769933 1.6330709
-1.7244285 -0.3501803 1.5982926
-1.7076205 -0.35319328 1.5905733
-1.7532029 -0.48432082 1.603268
-1.7294033 -0.55547684 1.6407381
-1.7008171 -0.34665856 1.5963123
-0.39756837 -0.17420267 2.7046101
-0.94032472 -0.25640041 2.6208239
-1.0934825 -0.30057785 2.67487
-0.95642763 -0.41979623 2.9159408
-0.84585607 -0.18849079 2.9915695
-1.0026801 -0.42589742 2.9815664
-1.1425081 -0.2026751 3.1011083
-2.0644612 -0.75599498 2.7321043
-1.8983517 -0.17616957 2.6506126
-1.8026302 -0.47046468 2.6837022
-2.0689781 -0.83447951 2.9006989
-1.8101957 -0.3483735 3.104202
-2.1456981 -0.81774837 2.7485819
-2.0719573 -0.84345466 2.9039974
-2.0742011 -0.8502599 2.9038107
-2.0693212 -0.83935153 2.9000831
-2.4814141 -0.60943234 2.8708935
-1.9110779 -0.58094901 3.5348196
-2.4314733 -0.71921647 2.9966364
-2.0236633 -0.61313808 3.6834009
-2.2591295 -0.74933934 3.6673317
-2.3569639 -0.70669317 3.1955032
-2.5491538 -0.7483514 3.0834534
-1.9913592 -0.60399711 3.6327364
-2.2783308 -0.89342123 3.1074939
-2.1903415 -0.65780848 3.872967
-2.1205416 -0.74845982 3.7780557
-2.6101904 -0.81051773 3.6653249
-2.1495659 -0.75639993 3.8099086
-2.6372762 -0.81758106 3.6834431
-2.3949397 -0.74703282 3.435565
-2.5095973 -0.9970538 3.6331093
-2.509366 -1.0077555 3.430784
-2.4374068 -0.856951 3.3349931
-2.5715811 -1.0311964 3.4860878
-2.657057 -1.0552396 3.570461
-2.62339 -1.0494142 3.5376201
-2.6058671 -1.0405788 3.5194287
-1.6977119 -0.11560648 1.5975994
-1.7234713 -0.10557118 1.6085095
-1.7508311 -0.55945235 1.5934583
-1.7683159 -0.49739808 1.6613564
-1.7865106 -0.5011248 1.6672878
-1.6498737 -0.67029059 2.0201001
-1.6966037 -0.40579867 2.0625997
-1.6328068 -0.099790931 2.1871467
-1.9164822 -0.075799912 1.6322048
-1.9732918 -0.56280261 1.9677529
-2.0316689 -0.70567077 1.9776455
-2.1541052 -0.59082222 1.8080944
-2.0133646 -0.19466822 2.8601024
-2.4349785 -0.660281 2.9275596
-2.5100892 -1.0678864 2.9055002
-2.6549613 -0.98795193 3.0766768
-2.3827386 -0.84883463 3.2931545
-2.4302108 -0.9651776 3.2590156
-2.4969597 -0.85240561 3.81299
-2.3595359 -0.55326265 2.8735301
-2.5967977 -1.0637729 3.0137868
-2.8180163 -0.62131661 2.9537172
-2.5061615 -0.37818533 2.6790643
-2.4272234 -0.77349448 3.4946723
-2.7317228 -0.84829837 4.364028
-3.6599338 1.1790299 4.09484
-1.2212726 0.0034382907 1.1587925
-1.5502387 -0.39687473 1.2988598
-1.5773849 -0.47076905 1.2985539
-1.5721357 -0.44487989 1.2959586
-1.6055695 -0.016132671 1.3303187
-1.5825346 -0.082348481 1.3199326
-1.5976727 -0.52229512 1.4814318
-1.6456463 -0.48895901 1.3073184
-1.5934948 -0.019165996 1.3276304
-1.6809509 -0.34264377 1.3681508
-1.5991056 -0.050966926 1.5722579
-1.6256262 -0.056618147 1.3746067
-1.4436684 -0.058375899 2.0144405
-1.6092147 -0.14394309 1.5962404
-1.6096122 -0.2360473 1.589341
-1.6236738 -0.21775366 1.5885006
-1.6776159 -0.3784087 1.3889439
-1.6436806 -0.13388436 1.4578006
-1.6370856 -0.32218122 1.3586063
-1.602993 -0.051142275 1.572575
-1.7068125 -0.47464693 1.5900149
-1.7073181 -0.55077314 1.6301824
-1.6513786 -0.53225595 1.6200854
-1.6915857 -0.14854583 1.627618
-1.7640474 -0.45894074 1.5460783
-1.8054502 -0.47713295 1.3837007
-1.809773 -0.51506615 1.8380127
-1.7021129 -0.69037485 2.0496464
-1.7736074 -0.19858184 2.2015228
-1.6428164 -0.092683084 2.3497949
-1.9038966 -0.63715935 1.9932663
-1.9692926 -0.55393404 1.9067167
-1.9755849 -0.6361779 1.9628586
-2.2963872 -0.073422439 1.7544451
-1.7401154 -0.10980234 2.6341782
-1.8475008 -0.46961799 2.7325161
-1.8014535 -0.25549093 2.8826787
-2.069061 -0.75341642 2.716753
-2.1591601 -0.19148563 2.536797
-2.0651681 -0.79489827 2.8643723
-2.1529722 -0.82235932 2.9214597
-2.3327441 -0.53539443 2.6192286
-2.527467 -1.0216217 2.8098092
-2.4575701 -0.85930043 3.3473625
-2.5822456 -0.94759291 3.1649368
-2.5900304 -0.94761616 3.1733229
-2.76354 -0.9871527 3.3006096
-0.23282722 0.018358065 1.1608198
-0.23426583 0.018389102 1.161339
-1.0117801 0.012594261 1.0741876
-1.0132009 -0.22419576 1.0078485
-0.98876685 -0.097138457 1.0379802
-1.0181681 -0.25975236 1.0069149
-1.0098898 -0.25814682 1.0089544
-1.0124589 -0.26024932 1.0087619
-1.0383945 -0.093634956 1.0368065
-1.0075986 -0.10166624 1.0409018
-1.0230639 -0.25196815 1.057713
-1.0239322 -0.3416827 1.0312761
-1.020607 -0.094444945 1.0330696
-1.0280429 -0.19783427 1.0620712
-1.0339452 -0.093172468 1.0365086
-1.0281869 -0.30865672 1.0537225
-1.02517 -0.19595294 1.0609355
-1.0273554 -0.19836882 1.0619184
-1.0153741 -0.307542 1.0516397
-1.0499153 -0.34604204 1.0325291
-1.0274383 -0.13776645 1.0678405
-1.5440394 -0.48707125 1.2917711
-1.5494611 -0.12642342 1.3143401
-1.5659798 -0.40123463 1.3034198
-1.6081115 -0.08276388 1.3519505
-1.5788974 -0.40364656 1.3877794
-1.6816028 -0.4915486 1.3172797
-1.6888552 -0.38139427 1.3897181
-1.6136222 -0.51224673 1.4216444
-1.7117538 -0.2536706 1.4754733
-1.6931781 -0.43984121 1.5202969
-1.7288172 -0.34705824 1.4014955
-1.7351648 -0.55699712 1.5934466
-1.6521298 -0.034801986 1.7331111
-1.7230695 -0.43494323 1.5243535
-1.6369079 -0.2564339 2.1313782
-1.7472243 -0.021631012 1.3603362
-1.6565549 -0.63745028 2.0134313
-1.6598361 -0.28302744 2.1172419
-2.0038793 -0.69289571 1.9681364
-1.9568679 -0.63026005 1.9489902
-1.9247686 -0.23852494 2.6134801
-1.9793981 -0.69095337 2.6114242
-3.2906516 1.0681199 3.7623026
-3.4664931 1.2759228 3.9097669
-1.0154916 -0.16589899 0.95380378
-1.0327721 -0.080832213 0.96529341
-1.0191561 0.0053054201 0.93788207
-1.0397549 -0.1290383 0.92544043
-1.0128307 -0.12891829 0.92465186
-1.0080729 -0.15720427 0.92742425
-1.0376081 0.0023011677 0.99745697
-1.0149487 -0.19399849 1.0650585
-1.0450952 0.00064996257 0.8584646
-0.99232823 -0.098591805 1.0369848
-1.0402175 -0.15782858 0.9254896
-1.0625588 -0.33506066 0.93644738
-1.0041909 -0.0028102868 1.048943
-1.0115303 -0.32679319 1.0360953
-1.0138898 -0.32774174 1.0361811
-1.0511602 0.0073516602 0.91354203
-1.034253 -0.25813329 1.0104704
-1.0309905 -0.33069918 0.93657655
-1.0433555 -0.22954831 0.87151664
-1.0252476 -0.25915921 1.0067695
-1.0260284 -0.28052425 1.0551859
-1.1419154 0.016895965 0.91505557
-1.0175554 -0.069932729 0.8668648
-1.0073744 -0.32365492 0.94127822
-1.0126442 -0.21335419 0.7439934
-1.0043739 -0.20964633 0.74488056
-1.014377 -0.23224401 0.77459294
-1.0414673 -0.30351421 0.82821363
-1.0305467 -0.19384196 0.71154916
-1.0398622 -0.21750315 0.68802625
-1.0248682 -0.15578656 0.65410233
-1.0415304 -0.19251172 0.81844413
-1.0292505 -0.042511847 0.6867407
-1.0240824 -0.24383916 0.80502176
-1.0450959 -0.16838723 0.71778733
-1.0369613 -0.24749869 0.80295551
-1.0365793 -0.19045337 0.81938529
-1.0156144 0.030311663 0.83382809
-1.0057359 -0.059563771 0.85830182
-1.0497764 -0.1721191 0.71443945
-1.0350398 -0.21263473 0.78984731
-1.0321691 -0.12918264 0.64900088
-1.0444379 0.030170795 0.61504185
-1.0269526 -0.25540206 0.74205983
-1.0411639 -0.25669107 0.73991489
-1.0406008 -0.15231651 0.70936555
-1.0484998 -0.15229453 0.70776647
-1.0253235 0.027451124 0.62322634
-1.010074 0.02720115 0.62938529
-1.0299441 -0.0015538411 0.85812223
-1.0263275 -0.068048671 0.66632867
-1.052858 -0.025141273 0.74366146
-1.0183368 -0.25134712 0.81815833
-1.0385979 -0.025326157 0.74775058
-1.5757729 -0.46053767 1.3045574
-1.7547469 -0.55690235 1.5896399
-1.08882 0.0098839533 0.91157693
-1.4972293 -0.47506762 1.2833872
-1.5643656 -0.40023553 1.3044664
-1.6101351 -0.058972236 1.5218242
-1.5762501 -0.45395836 1.3041725
-1.5766973 -0.44619602 1.3195578
-1.5687449 -0.39604357 1.4874445
-1.6108118 -0.050706942 1.3721935
-1.5586164 -0.0062865806 1.2901117
-1.5859622 -0.47062516 1.4062505
-1.6444619 -0.45148289 1.3307223
-1.6448876 -0.45078138 1.3293961
-2.3277659 -0.60432404 2.5230174
-0.83283871 0.030538734 0.72870833
-0.82566941 0.030483687 0.74246407
-0.83223498 0.029633574 0.72759461
-1.0218039 -0.21208948 0.74154603
-0.82465231 0.03419897 0.74240917
-0.82151073 0.030961072 0.74440014
-1.0363822 -0.10711844 1.0526114
-1.0267665 -0.082991682 1.071262
-1.0143307 -0.2412978 1.0217021
-1.0215843 -0.19593005 1.0605009
-1.0209069 -0.045213513 0.69520062
-1.0154951 -0.25104383 0.81857163
-1.0401243 0.021878516 0.70394957
-1.0198559 -0.15834425 0.59401101
-1.0238959 -0.22364116 0.63618845
-1.023652 -0.20699301 0.69283611
-1.0286857 -0.025219614 1.0754691
-1.0219676 -0.1578093 0.59081376
-1.0398595 -0.00057198911 1.0588366
-1.0246962 -0.025013354 1.0737435
-1.0368477 -0.082810171 1.07297
-1.040357 0.025077181 0.67573231
-1.0326881 -0.21165267 0.78879106
-1.0161926 -0.13869154 0.73077446
-1.0297676 -0.15942122 0.65363121
-1.0412329 0.033989362 0.82925516
-1.0499015 -0.17212516 0.94534236
-1.0387408 -0.23466483 0.6809724
-1.0365561 -0.19419369 0.81895155
-1.0539994 -0.034379065 0.75494033
-1.0492113 -0.10531596 0.76895815
-1.0397195 0.021706199 0.70528668
-1.025427 0.029521136 0.62142628
-1.0532539 -0.1473593 0.74665481
-1.0494177 0.03200949 0.6130029
-1.6284592 -0.090347059 1.3648132
-1.6665187 -0.38340226 1.3823419
-1.4628839 -0.24373381 1.2603797
-0.84576476 0.035871364 0.73582697
-1.0324633 -0.062159609 0.95660824
-1.0093302 -0.036292639 1.0035162
-1.0320859 -0.15077555 0.92626089
-1.0405791 -0.027881993 0.91101938
-1.0378575 -0.11379384 0.96079111
-1.0315832 -0.21813712 0.84440547
-1.0282462 -0.069596596 0.87165326
-1.037814 -0.094173647 1.0361202
-1.0426203 -0.12060879 0.9241221
-1.035957 -0.12059319 0.83470392
-1.0282971 -0.0018063914 0.69909304
-1.0353649 -0.054789636 0.9402023
-1.0352442 -0.069930874 0.69232506
-1.0407325 -0.16580404 0.71972328
-1.0466813 -0.14327942 0.74990356
-1.0326529 -0.13396573 0.72820437
-1.0457078 0.0065698409 0.94126511
-1.0415336 0.020999564 0.73395592
-1.0478718 -0.12184407 0.72393227
-1.0463336 -0.13662551 0.76459169
-1.5607221 -0.12662968 1.3166027
-1.0089127 -0.16219625 1.0603307
-1.0260493 -0.15459889 0.92377537
-1.0428908 -0.15430994 0.94837141
-1.0253633 -0.079946019 0.9628188
-1.0290337 -0.19815075 1.0628119
-1.0252174 -0.083505891 1.0708432
-1.0122982 -0.027169963 0.78147423
-1.0624487 -0.064345829 0.82295585
-1.034133 -0.18426503 0.94687659
-1.0312788 -0.1043292 0.75993598
-1.0349898 -0.21719423 1.0097089
-1.0416514 -0.21011959 0.82045782
-1.0406109 -0.11373176 0.96206385
-1.0624722 0.041601408 0.76465589
-1.0386876 -0.14461917 0.73839808
-1.0488296 -0.11786634 0.76621062
-1.0446621 -0.016732126 0.92782885
-1.037007 0.036980495 0.77135038
-1.0570828 0.00085380481 0.85185957
-1.6543206 0.11135656 0.77345651
-1.0249103 -0.19740999 1.0617943
-1.0330726 -0.147806 0.9421103
-1.019083 -0.068865545 0.86851037
-1.0187253 -0.2163386 1.0080413
-1.0351661 -0.18851042 0.81934553
-1.0321074 -0.21704616 1.0092788
-1.0172565 0.020755302 0.71044058
-1.0424435 -0.23479426 0.86955136
-1.0247297 -0.19226661 0.71307838
-1.0333802 -0.19569622 0.70948851
2.9659698 -0.10061429 0.29815257
1.7726699 0.081117637 -0.33100453
3.7457035 -0.3349776 -0.54043579
3.1667805 -0.033943951 0.21877803
3.6243291 -0.32825989 -0.0010731153
1.7282974 -0.16538084 -0.49893332
1.1512889 -0.70353663 3.8396835
1.0687662 -0.45334795 3.9241798
-0.70080715 -0.045455039 2.4774768
-4.8453398 -0.11071703 -0.71298999
3.0426538 -0.18960516 -0.5399977
3.2834668 -0.080534503 -0.60014606
-4.8946781 0.0011589779 -0.73642027
3.7026017 -0.65799284 -0.059832584
-1.4563816 -0.30004787 0.63951504
-3.5128329 -0.140973 -1.217217
-3.8341122 -0.92840111 -1.5775748
-4.8764076 -0.19483134 -0.25065535
-3.3212235 -0.32385167 -1.2038002
-1.7940419 -0.013149932 0.36654755
-1.4619503 -0.24682663 0.64203739
-1.9194452 -0.24296698 0.37670705
-1.5012864 0.032969058 0.37518448
-4.9589605 0.34741876 -0.46142593
3.9378636 -0.35605747 -0.56824481
2.858526 -0.17794037 -0.50060725
3.6378717 -0.64284271 -0.05152094
3.6335776 -0.7450276 -0.015496167
-2.3730164 0.0061153458 -0.80748892
-2.9685073 -0.58580869 0.010122402
3.0229044 -0.13941771 -0.45057514
-4.900218 -0.96026975 -1.1132463
-4.7269382 -1.2158048 -1.1020157
3.6287193 -0.74480289 -0.010066223
3.1492548 -0.033818763 0.22145556
3.6575699 -0.65868443 0.10327718
-2.154597 -0.23291624 0.24191511
1.0353317 -0.15437877 1.0023806
3.0516365 0.059889074 -0.42912456
1.9311709 -0.074272722 -0.61075872
3.6510375 -0.71260643 -0.21596664
-1.6905046 -0.012880051 0.35253283
3.8360112 -0.90801513 0.016510166
1.6698468 -0.061004717 -0.51279306
1.8118322 -0.091895185 -0.4574731
3.5900238 -0.41533729 0.082146905
2.8871095 0.056215294 0.078579269
-4.749229 0.066596396 -1.2226022
-5.0053425 -1.2408282 -0.71969837
-5.0481153 -1.1570727 -0.84451526
-1.4591933 -0.14286269 0.64805424
1.6376832 0.053680595 -0.45631316
1.7697265 -0.015284743 -0.50453746
2.855087 0.036859393 0.23356135
3.3927875 -0.33631369 0.14003459
1.0396931 -0.060148325 0.97703838
-4.792594 -0.42743447 -1.061607
-4.8938084 0.00087519689 -0.48574466
2.8794506 -0.40413541 -0.62977999
3.6912043 -0.66361082 0.10228943
1.7519495 0.070002519 -0.37598315
-4.6580415 -1.0158606 -1.1956874
2.4737113 -0.45210081 0.35691589
3.6992588 -0.64916587 -0.2206209
3.3620043 -0.095950961 0.43703964
-2.4553709 -0.034413613 -0.82264942
-1.9275255 -0.24909367 0.38137332
-2.030854 -0.14862987 0.38969442
-3.317245 -0.91888279 -1.4562211
-1.4113268 -0.087434098 0.63463169
-3.933224 -0.65419924 -1.6042178
-1.4493469 -0.29744044 0.635373
-1.6821648 0.038306069 0.34993958
-5.3956718 -0.96469086 -0.93159372
-3.2997329 -0.58486944 -1.3322256
-4.9689302 -1.3083512 -0.51540619
3.5687661 -0.61993831 0.19874246
1.4416565 -0.0094526354 0.30205658
-4.5677176 -0.48251155 -0.31405872
-5.0524325 -1.1779166 -0.66380185
-2.4066133 0.0049191257 -0.8172273
2.9959507 0.029127238 0.29094368
-5.7847285 -1.4312119 -1.5189737
-4.9856811 -0.58681929 -0.36496577
-3.0352118 -0.30128151 0.23354924
-2.4007542 0.087720603 -0.86767519
-4.8297305 -0.84675509 -1.1544681
-1.9622796 -0.26650691 0.36364585
-0.89340943 0.18145661 -0.065014824
3.5436456 -0.69834739 -0.0079740919
3.0884676 -0.50423914 0.24380399
3.6318791 -0.68859875 0.091916859
-4.9635043 -0.59819776 -0.51581031
2.358242 0.048616752 0.28477371
-2.9653959 -0.53053784 -0.043843199
-5.0809894 -1.1502874 -0.63475132
-2.6869452 -0.073164277 0.2649498
-1.7884408 -0.05590662 0.36738902
-1.7158771 -0.0173338 0.35385153
-5.0932026 -1.1564264 -0.54362082
-5.0706491 -1.0069889 -0.68372315
-5.0515885 -1.1149981 -0.36915269
1.5686501 0.0088090496 0.42078909
3.0599856 -0.076340824 0.078366011
-4.8350086 -1.0696913 -1.731638
-1.4692764 -0.090532586 0.65533054
-8.0359325 0.10937297 -0.22773589
-1.4725612 0.025257438 0.36214867
-1.4646981 -0.19622986 0.64808691
-4.7506018 -0.98138773 -1.5313015
3.2430639 -0.04433519 0.36069509
-2.2680461 -0.072552331 -0.76616478
-1.5204004 -0.08416371 0.35719231
3.2139797 -0.26185086 -0.60845006
1.3646322 -0.032687701 0.55987805
3.6434612 -0.59886211 0.079394482
1.6143075 0.083543964 -0.40011072
-4.849555 -0.0055920649 -0.91173714
-1.8713138 -0.042966399 -0.75398302
1.4752014 0.037691507 0.52674949
-1.9645354 -0.26940998 0.36509407
-2.1003926 -0.56797171 -0.035686791
1.5329635 -0.28346589 0.40853241
1.5980551 -0.032525398 0.54099387
1.0625685 -0.29443106 1.6195936
3.0944328 -0.032924663 0.15918948
3.0910366 -0.17641017 0.2348502
1.6578069 -0.060647819 -0.50655597
1.6641568 -0.061735082 -0.50739217
-3.0269933 0.65012503 4.3616219
-0.39720953 -0.52321583 3.2049284
-5.1419954 -1.0745034 -0.53873032
-4.9956255 -1.227638 -0.54227263
-5.030138 -0.046970263 -0.88231093
-4.8683858 -0.11958029 -0.72470027
-0.45972019 -0.80955213 3.2182298
-1.7666932 -0.014551315 0.3618558
-5.1518426 -1.0734673 -0.54308939
-5.1487904 -1.1787006 -0.38515276
1.1146392 -0.090952128 0.81368101
1.1028808 -0.83772212 3.6391613
0.83289057 -0.8895821 3.6012537
-0.47341898 -1.0198549 3.2095008
0.87296391 -0.12932009 3.0166237
1.0849859 -0.048992351 0.78748125
-1.2986726 -0.17937768 0.30276603
-1.625937 0.039347775 0.3463971
-4.8359132 -0.35488614 -0.76486754
-1.9393119 0.05144373 -0.72807962
-4.3918128 -0.9544819 -0.42964828
-5.0566216 -1.1793346 -0.65850818
-1.4776454 -0.12178794 0.33994979
-5.1092362 -1.327021 -0.38965577
-5.1492786 -1.4575335 -0.51140076
-5.1224246 -1.224969 -0.39373511
1.6447238 0.045197178 0.33986455
-4.8421669 -0.90781397 -0.30076057
-2.0565989 -0.42924598 0.037987284
-5.0067301 -0.5046196 -0.75932956
-4.6323872 0.038422205 -0.77100807
-4.618042 -1.2216531 -0.35123989
-4.8944678 -0.2244736 -0.26087883
-5.4318738 -0.97123396 -0.94122553
0.36351454 -0.68310177 2.6121957
1.0311892 -0.23009861 0.68288553
0.80694848 0.022213869 0.86225635
-0.69732922 0.061546195 0.073522866
-4.9459414 -1.0923754 -1.7742274
-1.9870536 -0.16592607 0.32188359
1.1107498 -0.078366846 1.0147094
-2.9311817 -1.052711 3.2749066
-2.0906465 -0.76401061 2.7549129
-1.8418773 -0.3090809 0.31821796
-1.0432186 -0.055921678 0.66344172
1.4138684 0.06006271 0.17894264
1.0607539 -0.21022201 0.74595904
1.5012769 -0.21702315 0.59887516
0.15476744 -0.67825502 2.6710529
-3.5892036 -0.28451064 -1.2746526
0.76103514 -0.73596871 3.0647395
-0.34361392 -0.25061166 2.6215625
-1.0413707 -0.041042734 0.68338627
-5.4812903 -1.0602818 -1.2453026
1.6381146 -0.084180743 0.46057829
-2.0664675 -0.10051848 0.3381888
-1.932261 -0.23433869 0.1650943
-1.0319437 -0.05255935 1.052853
-1.0447772 -0.015458471 0.92715383
-5.1143742 -1.004495 -0.85325682
-4.2885957 -0.0088900197 -0.18687272
-1.4448221 -0.33703688 0.29334456
1.0669386 -0.036745083 0.78756732
1.5236305 -0.33821777 0.58959091
1.0652893 -0.20981942 0.93278396
1.0581125 -0.25118768 0.87348318
-1.8741459 0.044595208 0.56681806
-2.1980407 -0.27577016 0.35751253
1.554255 -0.050262555 0.39008284
0.099227212 -0.12023909 2.8204205
1.0875953 -0.0875149 0.91080964
-1.4763041 0.012962356 0.15730645
-1.8248841 -0.16902804 0.33752397
-4.9617233 -0.98360783 -1.2951386
1.0524783 -0.29278234 1.6297147
1.0592135 -0.24642116 1.7250162
-1.0414279 -0.11402696 0.96210206
-1.0226007 -0.16219528 1.0436679
1.0282195 -0.28385395 0.63167179
-0.10788535 -0.37940255 3.9663641
-1.5914776 0.028562557 0.59650946
1.0878786 0.0028777339 0.92049664
1.075186 -0.15921655 0.95730013
1.0604707 -0.11185048 0.93357474
1.0920093 -0.19432905 0.86603284
1.0921409 -0.11881158 0.8945474
1.657146 -0.085396551 0.45731148
-1.0442389 -0.12361842 0.86323434
0.11502647 -0.10425142 2.734273
-0.48091969 -0.31176308 2.7506745
1.588655 -0.22392277 0.59525484
1.1622463 -0.077178918 0.758623
1.0555311 -0.22137953 0.9192583
1.0658641 -0.21230233 0.74591351
-1.4701988 -0.2488355 0.64618742
-4.8204765 -1.2643154 -0.82571536
-1.0429434 -0.051869307 0.85469145
-1.0388105 0.026140004 0.67510474
-1.7831522 0.039994825 0.35938063
-4.8271942 -0.17140132 -0.75552511
-7.363975 0.079590611 -0.17172502
-4.7088876 0.0054370235 -0.73511541
-1.8960321 -0.52172619 1.8143346
-1.6124278 0.035185788 0.32938045
0.82904303 0.022157535 0.90582895
0.26148248 -0.59255254 2.5574045
-0.72434437 0.034897469 0.067122094
-2.5254748 -0.5085665 0.073168084
1.7075446 0.032844894 0.050546378
1.0192362 -0.2486231 0.81410754
1.1589749 -0.15402658 0.73275554
1.0957422 -0.19507098 0.81334722
1.708964 0.0334161 0.048607785
-2.9018803 -0.93994951 4.3987017
-2.817451 -1.0330857 4.3823371
-2.0069194 -0.26874495 0.34870255
-2.2396693 -0.60518157 0.16187432
1.5024252 0.0076008798 0.28886756
-2.1404858 -0.93163216 4.3630366
-1.888602 -0.39663449 2.4951773
1.0808165 -0.036254909 0.89616024
-1.5555954 -0.44775298 1.5898563
-2.779151 -1.0955888 3.8721182
-1.6164737 -0.48243013 1.9987508
-1.7740026 -0.17846742 3.0126173
-1.9833515 -0.48946658 3.9547265
-1.6889349 -0.12100016 2.273273
1.5489424 -0.28646803 0.40774438
1.0285313 -0.15468873 0.87768894
1.0544478 -0.19048843 0.76122135
1.0923138 -0.14013287 0.88052922
1.436355 -0.02812737 0.58289701
-0.24486735 -0.035234563 1.6603005
-3.0833957 -0.22719632 0.44554257
1.1151969 -0.10761337 0.84242469
1.7199358 0.034301948 0.046841811
1.3799607 -0.29118076 0.53706437
-1.0629599 0.046397071 0.70082861
1.1031471 -0.046071663 0.81982625
-1.735715 -0.013240457 0.35315955
-1.8886628 -0.32172212 0.32069895
-2.0042052 -0.14448911 0.38398513
-1.0372744 0.016027069 0.82634604
1.0698113 -0.18744174 0.86029088
1.0488238 -0.17391171 0.71598107
-1.9082034 -0.015525145 0.38636166
1.6735035 0.041305918 0.24897422
1.0624377 -0.072884709 0.93265188
-3.7644932 0.11571299 0.76037437
-2.4010427 -0.43151715 0.034905698
-1.9503765 0.04989174 0.60122675
-2.8367441 0.0062425686 0.31064135
1.0815523 -0.11837982 0.93347502
-1.0316535 -0.14167665 0.73568368
-1.0323772 -0.15166716 0.71067113
-0.33627442 -0.70019466 3.2134781
1.4442685 0.016246744 0.5258432
-1.0379242 -0.16286753 0.9930793
-1.0322076 -0.048973225 0.68605459
1.0910262 -0.11389547 0.78466272
1.3779521 -0.27706122 0.55769831
1.0744659 -0.14254196 0.95798069
1.4070786 -0.20497862 0.60084325
1.2653588 -0.3823294 0.5778448
1.3793368 -0.29324329 0.57542217
1.4546573 0.062328752 0.16405542
1.3510059 -0.0079684844 0.24508302
-1.0415083 0.022585193 0.70502472
3.3786781 -0.83257163 -0.64182729
-2.0574296 -0.060992386 0.24030223
-2.9374294 -0.55650377 -0.06826818
1.4726577 -0.3307997 0.59187162
2.5318038 -0.45549029 3.4527562
-2.403892 -0.034772556 -0.71189576
1.0940846 -0.15727849 0.77873784
1.072562 -0.19102478 0.92027187
-2.0556881 -0.19702506 0.34837714
-3.4488988 -0.21927781 -0.031085197
-1.1443008 -0.01528835 1.546115
-0.50094664 -0.19775814 2.7358985
-1.8469783 -0.0071437643 0.13478366
-1.6751432 -0.2333499 0.36086804
-0.68016112 -0.2022021 3.2293785
-1.0367358 -0.016851624 0.95292783
-1.0556524 -0.11359428 0.84925985
2.3475544 -0.87001562 3.903518
-1.8705696 0.10885933 0.37347409
1.1204549 -0.13912183 0.89282745
-1.0421649 -0.10319535 0.77320808
-1.0351673 -0.15224075 0.71007693
1.0481879 -0.25360143 0.81723917
2.1654584 -0.98345709 4.0922585
-2.0358047 -0.065676466 0.35229906
2.0117419 -0.27267888 3.6041257
1.078961 -0.19045661 0.86304706
-2.9210916 0.57796711 4.2329149
-4.8474126 -0.00075484498 -0.39914954
-1.7598274 -0.17388462 2.5331984
1.0493491 -0.44063732 3.8103352
-2.7322781 0.023317089 0.30792224
-1.7302527 -0.15871143 2.6239331
-0.47216639 -0.29385933 2.612421
-4.174993 1.3527275 4.4833121
1.3809197 -0.20580436 0.54704505
1.0371296 -0.12802741 0.66555882
1.1110432 -0.32319298 0.94813329
1.0697417 -0.036925405 0.89361304
-3.892633 -0.97475553 -1.5797082
-4.8636022 -0.076923646 -0.33340156
-4.7309451 0.072061069 -1.2067462
-1.3258675 0.022469614 0.29709798
-2.194026 -0.4505772 0.031126358
-1.4127331 -0.47449201 0.62772125
-5.0386252 -0.99502462 -0.84019583
1.0147645 -0.1178636 1.8252391
-1.0337011 -0.2130522 0.73747867
1.0786922 -0.090586029 0.94809777
-5.0479259 -0.056655984 -0.95899671
-13.44222 0.11084926 0.4740932
-3.3122277 -0.41283384 -1.2926697
-1.0975075 -0.39926687 2.8747706
1.5970656 -0.21493042 0.63602757
-1.9867432 -0.096000649 0.3245053
-1.00328 -0.16247614 2.579216
-0.3555091 -0.47506768 3.2117944
-1.2275769 -0.10232043 2.8056662
-2.0346553 -0.41694865 2.839359
-1.0408646 0.023811344 1.0011842
-1.0545046 0.038539797 0.7906791
-1.8806424 -0.36874583 0.22067152
-1.0942926 -0.37336805 1.0450476
1.0692129 -0.088612817 0.91674972
1.0556937 -0.088627875 0.90866846
1.1408418 0.03127186 0.6022408
1.4361461 -0.034101568 0.54800153
0.93880755 -0.16010824 3.127526
-4.5298738 -0.52238566 -0.31293422
-0.23086159 -0.22063941 2.9911244
-5.0667534 -0.93528765 -0.31396249
-1.048062 0.031682085 0.88480157
-0.36042693 -0.50248498 3.2291481
1.719244 0.033930656 0.047525682
1.0636084 -0.20957533 0.93145126
1.0442376 -0.25244573 0.85288125
1.7318383 -0.0070199315 0.35700184
-1.8654501 -0.12790561 3.0409727
-1.490875 -0.2033132 0.33662891
1.2531049 0.067203298 3.3818994
-0.39639583 -0.62388104 3.76296
-3.3025424 -0.61433834 -0.082900003
-1.0494683 -0.0051957173 0.85666126
-2.9388492 -0.56474382 -0.068640947
-2.1226137 0.0022045716 0.20350507
1.0557873 -0.12493541 1.0739816
0.20030451 -0.37639588 3.3476295
-1.0356282 -0.070409685 0.66079205
-1.0499742 -0.14314346 0.86285055
-1.0754011 -0.095313445 0.80209798
-1.0443323 -0.073411331 0.95181769
1.324916 -0.26894948 0.28311449
-1.5206039 -0.081510089 0.35830262
-1.8809834 -0.048771486 0.36128798
-1.3609835 -0.23128134 5.0995183
1.0469939 0.0010217363 0.90865111
-1.4405423 -0.090240322 0.64250106
-4.5541439 -0.39830312 -0.7317965
-4.2389369 0.013476423 0.20837972
1.2498305 -0.6561929 3.5472472
-1.9285074 -0.17080757 0.34698173
1.2228866 0.0028605848 0.3669104
-1.9419826 -0.39677992 0.39940855
-2.5286646 -0.56334549 0.51031345
1.5500605 0.033816166 0.28277689
1.5978302 -0.21511267 0.63314378
-0.13408737 0.59935951 3.8188989
-2.4251761 -0.044942446 0.15420082
-2.0360706 -0.072327711 0.34941837
0.59043843 -0.45714235 3.0703232
-1.9041088 -0.3247844 0.17588902
0.91490269 -0.0070840917 1.0984004
1.422511 0.058591038 0.17563441
1.0837003 -0.19433941 0.86329859
1.0693203 -0.052839223 0.78215724
-1.2988362 -0.32780564 2.9920909
1.6731886 -0.028290596 0.45694953
-1.0206562 0.013020203 0.85131389
1.0902002 -0.16621491 0.74578083
1.0981404 -0.13696747 0.88391316
1.0429159 -0.026453182 0.8181029
-5.6553698 0.0067616082 -0.60324663
-1.9481148 -0.39636874 0.4011901
-0.24806719 -0.62613368 3.4994087
1.7481788 -0.13825394 0.035878282
1.06346 -0.14164415 0.72364831
1.4374225 0.034695338 0.53026587
-0.24460456 -0.94443196 3.2495122
-1.0401452 -0.091903821 0.80758834
-1.0506237 0.028366074 0.94237775
1.0946802 -0.13595204 0.88417321
-1.056252 -0.12754141 0.74499267
1.0638669 -0.030223215 0.8763501
1.1037488 -0.1673696 0.94084036
-1.1302685 -0.34571049 2.9373868
-1.4347929 -0.0074083176 1.2655874
-1.0398697 -0.13975823 0.72177511
0.1152396 0.026079677 2.7252853
2.5305376 -0.87912238 4.1092048
2.5109682 -1.1260304 4.0507026
2.5000288 0.58209497 4.1680183
-0.5849511 -0.2658633 3.0513637
