# .PCD v0.7 - Point Cloud Data file format
VERSION 0.7
FIELDS x y z
SIZE 4 4 4
TYPE F F F
COUNT 1 1 1
WIDTH 1490
HEIGHT 1
VIEWPOINT 0 0 0 1 0 0 0
POINTS 1490
DATA ascii
1.0543866 0.024319027 -2.6936603
1.0776736 0.029205887 -2.728302
1.4475533 0.079452038 -3.0582416
1.4202038 0.089365527 -3.5086737
1.4164015 0.085358426 -3.6524217
1.6312695 0.11663724 -4.1547198
1.2579577 0.11752511 -5.2162395
1.5705614 -0.62295204 -6.1485443
1.4835134 -0.22597034 -6.3457079
0.58187848 0.068936013 -2.0803001
0.62335557 0.084533237 -2.0405238
0.86887133 0.11679687 -1.8876899
0.91397148 0.099531233 -1.8364402
1.08653 0.12634408 -1.9146925
1.4970144 0.084591128 -2.6318896
1.1710849 0.043366559 -3.2089314
1.6894952 0.13263346 -4.3205738
1.0605594 0.02428495 -2.6468775
1.0911443 0.030038239 -2.6948214
1.1883067 0.048416335 -3.252991
1.6748605 0.11391897 -3.103745
1.6768348 0.11358803 -3.3100536
2.5500796 0.22835687 -3.5176919
1.8603787 0.14308551 -4.6502843
1.4837316 0.16641183 -6.1206183
1.6243848 0.11966843 -4.7080455
1.6665164 0.12810206 -4.7910061
1.7344964 0.12074157 -4.7031403
1.5538437 -1.682606 -6.2748871
0.65500009 0.092458248 -1.8629642
0.85370779 0.099882238 -1.8365233
0.84642005 0.10565518 -1.8502595
0.87499213 0.10502507 -1.848709
0.47556636 0.01931132 -1.748582
0.87057632 0.10948776 -1.8730657
0.89757514 0.10878798 -1.8631577
0.93864393 0.1086745 -1.862316
0.94875669 0.11189201 -1.8694333
1.3055575 0.13481627 -1.9533575
1.1600028 0.12211518 -1.9026331
1.1338863 0.11936594 -1.9034717
0.66825444 -0.031750243 -2.3358228
1.2663213 0.12109956 -1.9071147
1.7533007 0.11269844 -2.4266472
1.1781965 0.04347166 -3.2026682
2.3158243 0.18911541 -2.4969163
1.6087402 -0.41842842 -6.2795672
1.6089553 -0.3732143 -6.2868595
1.5979846 -0.41666234 -6.3501883
0.53909069 0.094385073 -1.8111919
0.76035774 0.10065881 -1.8428712
0.86096621 0.10403065 -1.8498271
0.85819399 0.10370944 -1.8430725
0.4627026 0.012129242 -1.701015
0.60423243 0.074858122 -1.9331219
0.96583271 0.096021175 -1.8320401
1.0210935 0.10397632 -1.8455058
0.95280641 0.1141275 -1.8748302
0.96050406 0.12721893 -1.9127492
1.0056483 0.097853765 -1.8333341
0.97433394 0.14130984 -1.9541889
1.0635245 0.10939251 -1.8659945
0.7625199 -0.021692535 -2.143878
0.80533528 -0.015404357 -2.1975956
1.288541 0.1138308 -1.8883641
0.62733662 0.079764433 -1.8048989
0.72378278 0.10122582 -1.841989
0.57227969 0.062649705 -1.9481966
0.85659492 0.091686539 -1.812736
0.66793966 0.10028277 -1.9642893
0.85588676 0.10233491 -1.8414762
0.86941808 0.1064103 -1.8514826
0.61106914 0.077962227 -1.9764528
0.64364707 0.093159728 -2.0300605
0.98255509 0.14344859 -1.9626374
1.279546 0.11737061 -1.9080201
0.85840607 -0.0051113893 -2.2776597
1.0931526 0.17938177 -2.0537384
1.2673818 0.11316251 -1.8873277
0.88060993 0.002988426 -2.7900517
1.4409847 0.0098010516 -5.0204678
1.4136349 0.14667633 -5.4870944
1.7176005 0.017373644 -5.4656415
1.6471918 0.13147609 -5.9067826
2.6395574 0.26403722 -5.4341593
1.2999516 0.11240282 -1.8856926
0.79154176 -0.01488699 -2.5501144
1.6544287 0.11106795 -3.1257794
1.6899247 0.1182377 -3.3886142
1.6939878 0.12144759 -3.4249685
1.7998198 0.13514987 -3.3802257
2.3141537 0.2104751 -4.6984754
2.151469 0.1931041 -5.0207443
0.25572133 -0.080789313 -1.3914675
0.61131376 0.073580071 -1.7281344
0.66276753 0.098268948 -1.9733491
0.64901423 0.092285402 -1.9478317
0.61072671 0.076805472 -1.9409702
0.641137 0.094661079 -2.1246371
0.93940759 0.097388618 -1.831284
0.63011491 0.083054073 -1.8856343
0.64797485 0.089569017 -1.8498633
0.86216229 0.10452127 -1.8595684
0.93597394 0.11479548 -1.877223
0.91291422 0.10790588 -1.8564672
0.92252725 0.11850858 -1.8855997
1.0249277 0.1292678 -1.9199567
0.61645973 0.090669297 -2.4281576
0.82943231 -0.0099757379 -2.4221072
1.1114645 0.034672089 -3.1467342
1.6339492 0.11022311 -3.126111
1.6562523 0.1158003 -3.29845
1.5591103 0.013623483 -4.4594626
3.1448102 0.32083046 -4.608923
3.0906088 0.26508322 -5.0132575
0.65790617 0.09743309 -1.8329865
0.43276638 0.00058835919 -1.6786823
0.59335315 0.0708647 -1.9674656
0.58352935 0.065849558 -1.91808
0.43884635 0.0021367506 -1.6594893
0.93225449 0.10913851 -1.8592438
0.95447195 0.11468798 -1.8756261
0.98627454 0.10477353 -1.8499864
0.6508503 0.091435865 -1.809579
0.44050193 0.0024154896 -1.6368107
0.97168499 0.1006375 -1.8397232
0.65578055 0.10057538 -2.1377141
0.93124926 0.11168122 -1.8676651
1.2412288 0.088988394 -1.8122543
0.83602035 -0.011105185 -2.2820802
1.2926717 0.11638541 -1.9103777
1.3225571 0.053029452 -1.9474882
2.4565904 0.23512776 -5.7437267
2.6085947 0.26342815 -5.5747886
0.64467168 0.088434353 -1.8140787
0.66137922 0.098662362 -1.971455
1.1473074 0.03420949 -2.4029512
1.0448426 0.019753827 -2.6572063
0.82977039 -0.048826709 -2.2677672
1.6766003 0.11686094 -4.2618546
2.3216991 0.22039676 -4.9769683
3.0526824 0.26946127 -4.9548345
2.3028228 0.21366033 -5.5779743
1.0492417 0.022777645 -2.6753306
1.96981 0.23307449 -2.7292068
2.2678051 0.20245656 -4.2549782
2.6452236 0.25670627 -5.4560976
0.42010856 -0.010153 -1.5652875
0.82530087 0.16657722 -2.0076356
0.63135773 0.083174661 -1.7942697
0.81496537 0.16229592 -1.9799045
0.68047351 0.082470089 -1.7841475
0.69454682 0.10249539 -1.844249
0.73190451 0.10776974 -1.8616536
0.58277422 0.069178954 -2.0653312
0.45272785 0.0083325487 -1.653357
0.78169733 0.10890229 -1.864081
0.57092655 0.063524276 -2.0113373
1.0348383 0.12359235 -1.9055122
1.0523901 0.11276408 -1.8782269
0.2765713 -0.072100483 -1.4133703
0.62942815 0.080221906 -1.7149911
0.67188108 0.096087784 -1.7077771
0.68730247 0.08707457 -1.7991472
0.671969 0.099239737 -1.7881126
0.70029551 0.098755933 -1.8340985
0.87406093 0.095338374 -1.8233125
0.94097084 0.11168201 -1.8667139
1.3276734 0.10303505 -1.872268
1.3240007 0.054721002 -2.1594021
1.0358422 0.024572013 -2.9777124
1.276528 0.055861611 -3.3706985
1.7223574 0.10012091 -3.3134947
2.5484855 0.17713317 -4.3126822
0.63690376 0.085499212 -1.8423613
0.57953596 0.062928803 -1.8882097
0.61951619 0.083828062 -2.0559094
0.52928174 0.041916631 -1.7998005
0.64462888 -0.040186357 -1.9621437
0.65417051 0.09572158 -1.9717617
0.63824129 0.092491411 -2.0687823
1.281247 0.096835218 -1.7883801
0.48719001 0.022442868 -1.6829115
0.5072366 0.030174784 -1.6791801
0.49644265 -0.062153403 -1.7862664
0.6293903 0.083781399 -1.8361968
0.64772302 0.091699786 -1.9063932
0.77681476 0.098595425 -1.8311337
0.64590406 0.091647819 -1.9354659
0.77424258 0.11132538 -1.874676
0.92751843 0.087241799 -1.8048235
0.98009944 0.10000133 -1.8353367
1.0983839 0.12444513 -1.907357
0.94360375 0.0051975502 -2.5177794
1.777068 0.13713306 -4.1685858
1.4537078 0.12863375 -1.8784412
1.1407067 0.036951926 -2.6391447
1.7205352 0.20427459 -3.6841979
1.8816997 0.14633203 -3.3546987
1.5760671 0.0088259848 -4.5060945
2.0663269 0.17693688 -4.7105918
2.3030248 0.21913393 -6.0105147
0.57331353 0.055825606 -1.7085884
0.62002271 0.076471657 -1.7451079
0.51192999 0.032704026 -1.7263825
0.56653702 0.058123033 -1.8829038
0.67192757 0.10224528 -1.9345509
0.66830695 0.10030051 -1.9178596
0.94370896 0.096083589 -1.8248303
1.0387721 0.11789896 -1.8868655
1.4237893 0.12071242 -1.8124359
0.9391523 0.0061406149 -2.6406395
1.5512488 0.14442746 -1.8398563
1.7779542 0.18601193 -1.9252996
1.7108914 0.12263893 -3.4336908
1.4898903 0.093751475 -3.7738585
1.7435372 0.13126393 -4.8257332
2.6232457 0.25626194 -4.6617227
2.0668697 0.18324311 -5.816678
0.91009611 0.067397885 -1.7494564
0.93137491 0.033648357 -1.8993018
1.6308876 0.16947994 -2.6559529
0.97701198 0.044332664 -2.0037732
1.3862491 0.07387241 -2.9831562
2.1770589 0.19195412 -5.7805762
1.6729634 0.068235807 -3.1554382
1.9293544 0.14885654 -3.3930891
1.6955751 0.11806934 -4.1953845
2.3190722 0.20687011 -4.3019567
1.4935915 0.062576771 -1.7631494
0.42480162 -0.0048512896 -1.5869648
0.46266836 0.011502188 -1.6257211
0.58454484 0.066636764 -1.7407119
0.62571955 0.097053275 -1.825202
0.6281333 0.082828589 -1.84236
0.62847018 0.11101983 -1.8650373
0.57937264 0.061873902 -1.7731516
1.3949472 0.11629516 -1.7825058
1.7703968 0.10533598 -1.9000316
1.3916805 0.11446136 -1.7446989
1.3157958 0.11407642 -1.9010057
0.93688464 0.010789546 -2.4870517
1.3762313 0.12190914 -2.6193757
1.2164472 0.054074172 -3.1506364
1.2235515 0.055288497 -3.5230651
1.7759614 0.13449626 -4.2288275
3.2359257 0.32872674 -4.8801908
0.46414769 0.01225472 -1.635273
0.47141823 0.016241839 -1.6459135
0.64034623 0.088337645 -1.8036474
0.63854682 0.087627336 -1.8357577
0.51942015 0.037068564 -1.720934
0.78661549 0.10192631 -1.8482296
0.77102733 0.094342731 -1.8262879
0.69015455 0.11122993 -1.9783448
1.1404995 0.12344769 -1.9149319
-2.0037143 0.10517998 3.2973876
-1.9887123 0.044463716 3.0569997
-2.063875 -0.30409065 3.0171194
-2.0825591 0.11181986 2.9243596
-1.9916142 0.10957531 3.1842046
-2.0534363 -0.31852368 2.8256021
-1.9706542 0.11044039 2.9307861
-1.9190649 0.12898083 3.159961
-1.9637651 0.11371086 2.9244773
-1.3756174 0.11863327 2.9323227
-1.9559957 0.096568443 2.6507368
-1.8288072 0.094703183 3.0148823
-1.7809136 0.099319778 3.0061851
-1.7281548 0.10437224 2.9792142
2.2883117 -0.046194084 3.7903357
-1.9486709 0.11306489 2.8649993
-1.9650706 0.11031028 2.6483936
-1.801962 0.091673426 3.0026779
-1.9285452 0.10287901 2.6345534
-1.9322978 0.12139988 2.6109042
-1.9075855 0.11311182 2.6358347
-1.9145409 0.10206142 2.625386
-1.9173011 0.11421401 2.6219029
2.24371 -0.53917855 2.564023
2.2796037 0.54376793 3.8118107
-1.7870209 0.10887845 3.0159922
-1.7615013 0.11537116 3.0098784
-1.872722 0.11756977 2.6039686
-1.8296869 0.12810506 2.5891116
-1.8026482 0.13184875 2.5729804
-1.7662596 0.12432706 2.5280249
-1.6580052 0.14586733 2.527158
-2.0563397 0.10539383 3.1212163
-2.0801897 0.11464487 2.9204557
-2.0354722 0.10729075 3.083154
-2.0174267 0.11010716 2.9104137
-1.9582175 0.12448017 3.1628919
-1.7839866 0.096977085 3.0026474
-2.3317504 0.031094752 3.160882
-2.1793275 0.10966223 2.9265506
-2.0816612 0.034727927 3.0720639
-2.0420671 0.10596623 3.1885405
-2.0258338 0.10980177 2.8904622
-1.8194617 0.089991264 3.0087616
-1.8798962 0.11794615 2.6068714
-1.685119 0.13549943 2.5553222
-1.8948199 0.14382391 2.8831408
-1.9283266 0.10352364 2.6602631
-2.3942821 -0.026037399 3.1934326
-2.3933716 -0.024957335 3.1930563
-2.3930547 -0.025163401 3.1930947
-2.2219775 0.059812803 3.180438
-2.1812024 0.071578264 3.1861856
-2.115283 0.086527348 3.1862226
-2.1150384 0.087071188 3.1856768
-2.1677904 0.10963255 2.9250669
-2.1057036 0.10311326 2.9433653
-2.0467527 0.10635768 3.2347572
-2.0461607 0.10368897 3.1182895
-2.1073365 0.10715105 2.9413962
-2.0437419 0.10694481 3.1782353
-2.1012995 0.11023407 2.9255977
-2.0542483 0.097379282 3.1183629
-2.0923636 0.10759947 2.9304843
-2.022289 0.11192366 3.1879008
-2.0197473 0.11269686 3.1883719
-2.0810714 0.11135364 2.9377587
-2.0627255 0.10659666 2.9310145
-2.0553319 0.11034101 2.927109
-2.0147755 0.11199786 2.9251428
-1.963305 0.12700197 3.1667264
-1.6247478 0.12970378 2.9041452
-1.5378319 0.10796461 2.9455948
-1.7858312 0.12916113 2.5730441
-1.1956474 0.14446867 2.5337422
2.2119617 0.099603131 3.3768182
-2.080338 0.098805025 3.2096486
-2.0604064 0.10480163 3.1898682
-2.0495393 0.035684969 3.0629597
-2.0609086 0.1041771 3.0855563
-2.059489 0.035279382 3.0687251
-2.0309865 0.11203456 3.1913798
-2.0904808 0.10825452 2.9289756
-2.0861709 0.11195031 2.9228973
-2.0921037 0.11761232 2.9124451
-2.1407571 0.029270779 3.0798283
-2.3954296 -0.020727493 3.1973953
-2.3954134 -0.020670224 3.1972165
-2.1583643 0.077297658 3.1823299
-2.1877649 0.10936587 2.9268019
-2.0651417 0.1023292 3.1959467
-2.0617073 0.10392064 3.1964424
-2.0528789 0.10638176 3.1905029
-2.0556479 0.10604558 3.190583
-2.0523875 0.10637993 3.1768818
-2.0545228 0.10524528 3.1781843
-2.0503643 0.10695332 3.1777179
-2.0880842 0.11645322 2.91728
-2.0409009 0.11152559 2.9267752
-0.39224884 -0.11504799 0.35322377
-0.6712696 0.12303472 1.5729851
-0.46324736 -0.035412464 0.43210599
-0.50893319 0.021005189 0.45738795
-0.37981278 -0.024688479 0.60906166
-0.53405035 0.1006362 0.74985594
-0.54770738 0.10923183 0.78415734
-0.72947741 0.15471449 0.97974253
-0.57673222 0.18333611 1.1187768
-0.68627346 0.18501198 1.1317686
-0.7224648 0.14862531 1.2073982
-0.66686183 0.24564083 1.408221
-0.66864854 0.24817227 1.4143178
-1.0975853 0.15227093 1.265301
-1.1002904 0.15251903 1.2690498
-0.66870272 0.25256422 1.4349949
-1.3226219 0.36298963 1.2369342
-1.3348699 0.36923477 1.2520444
-0.8186096 0.21334992 2.1444402
-0.87343037 0.24227785 2.3547714
-3.3172715 0.18590291 2.763366
-3.5706336 0.22491033 4.466157
-3.1174977 -1.9686323 6.2146211
-1.5471878 0.9628064 6.5672116
-1.9884115 -0.52611345 6.5988154
-6.0295959 -1.3193544 5.3577476
-5.7533946 -1.186321 5.5054369
-6.3696613 0.27008054 5.9116917
-6.3754344 -2.1935115 5.9895639
-6.6146388 -1.4486778 5.898315
-0.12129125 -0.90988255 6.7690892
-0.39216286 -0.11509231 0.35300797
-2.3185854 0.034498263 2.9831586
-2.1014376 0.093950108 3.1541011
-2.1447823 0.082405686 2.9224012
-2.0766215 0.099959351 3.2097573
-2.1063333 0.10525218 2.9298632
-2.0376306 0.11084825 3.2134213
-2.0965197 0.109396 2.9267099
-2.1009071 0.10891727 2.9277773
-2.0774033 0.10640605 2.9324341
-2.0866754 0.10648848 2.9318862
-2.0338132 0.11296758 2.9199014
-2.0447106 0.1105139 2.923888
-2.0240371 0.11359052 2.9223425
-1.9927336 0.12188119 2.9136057
-2.0091963 0.11087488 2.9254277
-1.9921689 0.10776019 2.9331703
-2.0317724 0.11476298 2.7135272
-2.0341375 0.1138768 2.7174544
-1.8914579 0.10833827 2.6265066
-1.8854766 0.10902187 2.6284914
-1.9323158 0.10336228 2.6638813
-1.8847685 0.10850088 2.644007
-1.6695455 0.10146242 2.9496489
-0.87256622 0.10955106 2.9687147
-2.3307648 0.03035775 2.9839172
-2.2128623 0.062621631 2.939363
-2.1448219 0.081657991 3.1212034
-2.0797203 0.099082321 3.2496784
-2.0729358 0.031176869 3.0640936
-2.1308451 0.087167516 2.907553
-2.1226375 0.087533332 3.1748734
-2.0888612 0.097014233 3.1989367
-2.0746088 0.10058816 3.2356286
-2.0656493 0.10357615 3.1176512
-2.0386353 0.11151727 3.1778889
-1.9930542 0.12497485 3.1689816
-2.0273757 0.11020248 2.9272416
-2.0591354 0.10995424 2.7188089
-1.9545625 0.10889388 2.9318583
-1.9311039 0.13700327 2.893379
-1.9170028 0.10497122 2.9402285
-2.0441384 0.10989556 3.1934674
-2.026144 0.10600269 2.9351029
-2.022064 0.11579551 2.9226162
-2.0009413 0.11259701 2.9243433
-1.8263021 0.10431622 3.0332983
-1.9297715 0.09604957 2.6716423
-1.9213381 0.10528603 2.65505
-1.9085059 0.1017012 2.6583939
-1.8414551 0.11366543 2.6264887
-1.6960737 0.10843897 2.9410949
-2.1939209 0.068737663 2.9320295
-2.132575 0.074411713 2.9266126
-2.0671055 0.10751978 2.759048
-2.0601425 0.10598031 3.1939859
-2.0668581 0.10361882 3.1463699
-2.0609615 0.10529269 3.1659844
-2.0563519 0.10680973 3.1804419
-1.9983082 0.046424855 3.0453129
-2.0542035 0.10475677 2.9415936
-2.0625012 0.10894992 2.7538841
-1.8917202 0.084977686 3.0398061
-1.9450628 0.090241067 2.6793807
-1.9202466 0.097697265 2.6764419
-1.9125975 0.1019008 2.6661522
-1.9136256 0.098934829 2.6749587
-1.8786829 0.10663514 2.6492853
-1.8733703 0.1082359 2.6473198
-1.790454 0.1028611 3.0069036
-1.8664379 0.10525721 2.6340723
-2.0803642 0.099048018 3.2493711
-2.0774705 0.10027122 3.2162819
-2.0603731 0.1052838 3.1760085
-2.0605397 0.10471947 3.1473527
-2.0411441 0.10747413 3.1182876
-2.0797577 0.1079344 2.9297302
-2.0231135 0.11042355 2.9274349
-2.0120714 0.10532483 2.9362464
-2.0330815 0.11102961 2.71258
-1.9778472 0.10911002 2.6784494
-1.9750568 0.10917566 2.6770463
-1.8640012 0.11030751 2.6329458
-1.5660405 0.10557287 3.1964355
-1.9173994 0.091404676 2.6837046
-1.8577412 0.10582482 2.6475587
-1.4266347 0.11437388 2.633009
2.3117018 0.13385934 3.827713
-2.196933 0.066510543 3.1082954
-2.150768 0.10300741 2.8225527
-2.134495 0.10839222 2.8132257
-1.843472 0.10941794 2.6221049
2.3135834 0.096021466 3.8318734
2.2888839 -0.4585793 2.3835673
-2.1281488 0.10596813 2.9317961
-2.0732021 0.10387111 3.122344
-2.1108568 0.10727134 2.9291875
-2.3463488 -0.027142845 3.180963
-2.0835545 0.10464971 2.7702131
-1.6326582 0.10846753 2.9424338
-2.0271709 0.1057454 2.8859973
-1.8110306 0.099567145 3.0200982
-2.0592079 0.10757791 2.9336169
-2.1021273 0.10695011 2.7831087
-2.0672088 0.11237733 2.7615371
-2.0637066 0.11509222 2.7601748
-2.0633011 0.1096455 2.7528222
-2.0408275 0.1064392 2.933955
-2.0444167 0.10606766 2.9343448
-2.0425372 0.1162369 2.7529161
-1.8834696 0.10433943 2.6659806
-1.5831606 0.10486687 3.2000563
1.4113884 -1.6221484 0.88913405
-2.0725336 0.10868221 2.9309046
-2.0442348 0.10392066 2.9380679
-1.8768799 0.10389253 2.6539102
-2.1157546 0.093429662 2.9391415
-2.1094992 0.10318167 2.9367232
-2.1139672 0.10323789 2.9363387
-2.0718894 0.10693594 2.9308455
-1.8931063 0.10797863 2.6405022
-1.8659825 0.11333259 2.6238513
-1.7442974 0.115297 2.9255617
-1.4297203 0.12937039 2.9104381
2.1215932 0.65187466 2.5954452
2.2521305 -1.8424975 0.42340174
-1.1625214 0.11013744 2.9562373
1.1614546 0.57813245 3.6790106
2.3208632 0.11149444 1.0588312
-1.8657863 0.10170378 2.9454343
-1.8889092 0.10096075 2.666126
-2.1546767 0.080739349 2.9159679
-1.942629 0.10178149 2.9429278
-1.6290749 0.095572114 2.965332
-1.9911336 0.089185886 2.7275715
-1.475603 0.11021721 2.6359031
1.8244702 0.62018591 3.7873287
-2.2185392 0.060874872 2.9411559
-2.0821257 0.10373121 2.8876491
-1.8938993 0.10427989 2.940486
-1.6819109 0.10916609 2.9405556
2.3456962 0.079175182 3.8246393
2.3599038 -0.49555421 2.2484319
-1.9672076 0.096644811 2.9508162
-1.8289847 0.1072046 2.9394424
-1.7696586 0.11840365 3.0160875
-1.5791577 0.091246985 2.6901014
-1.3110007 0.099734209 2.9686577
2.450011 0.24725376 3.830231
2.4732623 -1.5272768 3.8511288
2.2565084 0.016853351 3.8196528
2.2516472 0.20124078 3.8210001
-1.8475965 0.10142514 2.9471691
-1.8530269 0.10529616 2.9400837
-1.7289206 0.10572577 2.943692
2.6375954 0.14837787 0.9624843
2.2643337 -0.012848167 3.8135624
2.2985015 0.23633558 3.8230407
2.1647894 -0.52613819 2.2253439
-1.7796797 0.10021451 3.0390739
-1.7433943 0.10904688 3.0277622
-1.7585882 0.10454914 3.2146964
-1.7492073 0.11838892 3.0410123
-1.7401816 0.10885072 3.0187922
-0.83557689 0.11179064 2.9655607
1.9339111 0.67337561 3.801805
1.9855793 0.67839855 3.8111138
2.2474799 -0.038675409 3.8079023
-1.7979356 0.092467159 3.0333087
-1.7859232 0.098944232 3.0419555
-1.7615352 0.10572121 3.0365736
-1.7111772 0.11710268 3.0224204
2.5428524 -1.4280461 3.8543992
2.1780927 -1.410019 3.7973042
1.891224 -1.4340825 2.3393991
-1.9105748 0.10271936 2.9415505
-1.6262574 0.10251049 3.1996055
-1.662439 0.10946344 2.6383862
-1.1541601 0.12930559 2.9227295
-0.79991686 0.10781459 2.9732785
-0.61670864 0.10944237 2.9767015
-1.9094937 0.099889256 2.8827343
-1.8661571 0.10346553 2.9407692
-1.8024105 0.099382922 3.2155454
-1.8643577 0.10472067 2.8632655
-1.8657537 0.10210175 2.8631852
-1.7988594 0.10071127 3.0528498
-1.8301574 0.10431419 2.84847
-1.828795 0.10664532 2.849364
-1.4079152 0.12259728 2.6014216
-1.1421489 0.10635547 2.9625547
2.3361628 -0.51463723 2.3627808
1.9502505 0.70016092 3.7832863
2.1644223 -1.1515113 3.7848344
2.2361448 -0.5137853 2.3334255
2.2734346 -0.4210569 2.563693
2.6683462 -1.4266733 3.8745639
2.61392 0.062204372 3.8503704
-1.8621048 0.10548644 2.8627002
-1.8131447 0.098594502 3.0536673
-1.8774109 0.10072347 2.8701849
-1.4745704 0.1098319 2.6423125
2.3038323 0.11778772 3.3911283
2.2978022 -0.4820891 2.5062563
2.3134205 0.77566355 3.8557973
-1.8870002 0.10299665 2.9428484
-1.9139985 0.10594556 2.9021416
-1.9143475 0.10392582 2.9022367
-1.861927 0.098065451 2.9484522
-1.8132685 0.089643218 3.0385296
-1.8825448 0.10399073 2.8779211
-1.8142226 0.10419299 3.0544024
-1.7970047 0.10079999 3.0374508
-1.8152704 0.10608687 2.9398632
2.5323069 0.1353264 3.4147222
-2.2490425 -0.011777911 3.0636885
-2.2470548 -0.011297002 3.0633788
-1.6144865 0.10748925 2.9450552
-1.643485 0.1155781 2.6201382
-1.5071468 0.10999247 2.636143
2.3043256 0.14357302 3.8233027
2.4109561 0.12601721 3.3953035
-1.7323025 0.10869481 2.6356833
-1.5064368 0.10736796 2.649013
2.0753789 -1.2664137 3.7819786
2.627986 0.50229329 3.8845778
2.2694774 -0.40367761 2.1968131
-1.8268167 0.087416708 3.0549662
-1.7984108 0.10766447 3.0616994
-1.5825021 0.089556493 2.6660678
1.6023356 0.67831177 3.7352357
2.4020915 0.8443687 3.8672078
2.2746589 -0.50883341 2.3553634
-2.229871 -0.010590682 3.0618026
-1.9315933 0.10217836 2.9055557
-1.7872034 0.0941393 3.0389616
-0.76634192 0.10786498 2.9733551
2.1081643 -1.1665432 3.7780163
2.1670942 0.79995364 3.8315632
2.2832711 -0.43370533 2.3690569
2.5843992 0.45744696 3.8723638
2.0214822 -1.7476479 0.80327874
-1.8547603 0.10442093 2.9386768
-1.7847842 0.10798748 2.9376607
-1.5051519 0.11109672 2.6300089
-1.2449434 0.11137926 2.9327569
-1.0469661 0.14593217 2.9104846
-1.6636502 0.10068142 2.9513755
-1.5649523 0.096023917 2.6746953
-1.1678611 0.098694459 2.973325
-1.8646384 0.10538633 2.8878846
-1.4290143 0.12362676 2.6019471
-0.70929235 0.10839355 2.9757755
0.60650605 0.1110549 3.0297968
2.2624326 0.8451432 3.8240623
2.1789124 0.8257497 3.8127337
-1.7909133 0.092562445 3.0606072
-1.7666709 0.10310687 2.9443302
-1.7392868 0.11501627 3.0637872
-1.5387625 0.099492751 2.6264427
1.1883619 -1.4489386 1.0497764
2.1743431 0.80629498 2.5920417
-1.7626336 0.10389091 3.0596242
-1.6251302 0.10902816 2.9420636
1.7531178 0.74962211 3.7588601
1.9189382 0.79806328 3.7987564
-1.6562049 0.10612979 2.645721
-1.5914426 0.10664887 2.946784
-1.6006011 0.10577381 2.9475577
2.2737155 -0.54507905 2.5451725
2.4837275 0.52830416 3.8493769
2.1324556 0.12355813 3.0528412
-1.1849482 0.11674996 2.917604
-0.89571875 0.11197765 2.9591949
-0.65805632 0.10461087 2.9809253
2.2210395 -0.40327299 2.2592103
1.3724334 0.12610893 3.032033
2.3610184 -0.47606152 2.4118133
2.2548733 -0.47001916 2.3507357
-1.6137646 0.082728833 2.6327586
-1.4475169 0.11734192 3.130717
-1.502165 0.10964141 2.5670485
-1.4696736 0.11606346 2.620806
-0.68187344 0.19362059 2.8643007
2.3141484 0.70415765 2.1994321
1.8666054 -1.6566693 0.9195472
-1.7834553 0.10403609 2.9440274
-1.6474156 0.1069029 2.9443455
-1.565634 0.11280688 2.6337519
-1.7554274 0.1016232 2.9377899
-1.7320315 0.10564633 2.943243
-1.5409293 0.10688712 2.9480205
-1.7569684 0.10215246 2.9458909
-1.7471849 0.102685 2.9444532
-1.7161115 0.10470942 2.9443085
-1.5664229 0.10809281 2.9462214
-1.6122614 0.11844265 2.613349
-1.3399768 0.11174988 2.9490647
-1.2135706 0.099154219 2.9682856
-0.38822201 0.24029191 2.8271074
1.4291813 0.74714714 3.6989264
1.7798842 -1.2595643 3.7361805
1.7303801 -1.6302963 0.73082381
2.2724845 -0.53181511 2.3096905
2.2659566 -0.46599725 2.3478215
-1.6851425 0.10435385 2.9461763
-1.5864043 0.11494252 2.6270282
2.1458027 -0.83738512 3.7887106
-0.25107038 0.10046668 2.9974813
1.6545223 0.11812286 3.0207546
-1.7421795 0.10422923 2.9439564
-1.7238462 0.10404667 2.9453185
-1.7088885 0.10874268 2.9433887
-1.6646142 0.068132803 3.0931723
-1.6655458 0.10595316 2.9450285
-1.6327339 0.10538911 2.945864
-1.5185547 0.10139304 3.1431866
-1.5026635 0.10548824 3.1455374
-1.5652733 0.12105835 2.6102197
-1.2090172 0.17277944 3.1052403
2.2760584 -0.52329814 2.5653675
2.6193459 0.57936293 3.8803952
-1.6732385 0.10174722 2.9473767
-1.1670332 0.14125562 2.9149611
0.017785007 0.10955496 2.9971709
1.7685994 0.12317648 3.0259969
2.1799605 -0.44614375 2.3066995
2.3133698 -0.50291389 2.4375296
-1.7099149 0.10120118 2.9481394
-1.6594207 0.10505986 2.9452755
-1.6169703 0.10338237 2.9487991
-1.5539159 0.09632159 2.6556559
-1.7039477 0.099446766 2.9477324
-1.5291919 0.10240231 2.6093593
1.8393747 0.041418951 1.8138329
-1.6464454 0.070941187 3.0857534
-1.5430105 0.10220692 2.6488814
2.302182 0.52346987 3.8239207
2.1281462 0.13376796 2.4079633
-1.10999 0.14694518 2.9008672
-1.4984195 0.10373516 2.9532983
2.2398942 -0.4355537 2.3741763
-1.775521 0.03963761 3.072402
-1.7253606 0.051705163 3.0783691
-1.6637625 0.070539162 2.6489522
-1.5267997 0.10004138 3.1058333
-1.5090649 0.1083646 2.9527445
-1.1451716 0.14148247 2.9055741
-1.0817295 0.15066406 2.8973091
-0.92410207 0.18197483 2.8838329
0.30267206 0.097742073 3.0209773
2.6633515 -0.96624404 3.8871188
2.2673552 -0.50133795 2.4054351
2.2836952 -0.47962996 2.4574087
3.119844 -1.0340016 3.9583297
-1.5050322 0.10328515 2.9521961
-1.4723318 0.10613649 2.9534321
-1.4453487 0.10796866 2.9517798
-1.432652 0.1059881 2.6556828
-1.632378 0.10524012 2.9470611
-1.5794789 0.11292505 2.9452748
-1.5795352 0.089218594 2.8255737
-1.5092454 0.10504957 3.0810261
-1.4939803 0.10682375 2.9544184
-1.5424029 0.10164218 2.6604421
-1.4496288 0.1140025 2.9496689
-1.2799044 0.16463806 2.9690473
-1.0782678 0.14634842 2.8941469
2.3141015 -0.48470449 2.4652002
2.6064758 0.6097033 3.8822036
-0.90441549 0.11129941 2.6625016
0.3019796 0.089305542 3.0137019
0.074943863 0.30574375 2.7922843
0.41375825 0.098541982 3.0111337
0.93599576 0.12428759 2.3800499
2.2609808 -0.43598521 2.4247925
2.3468382 1.0833799 3.854737
-1.4622931 0.1070879 2.6525145
-0.94959158 0.11699221 2.9643924
-1.4673649 0.11634722 3.1332552
-1.6714096 0.061588608 3.0771742
-1.6017286 0.10722868 2.9476573
-1.5784763 0.10107385 2.9516206
-1.6379204 0.073746137 2.692169
-1.5187021 0.10223433 3.1021504
-1.5264375 0.099665456 3.0953548
-1.5769776 0.090529487 2.6106441
-1.4150984 0.11330875 2.6393149
-1.3361714 0.11072883 2.6487572
-0.98977017 0.23704687 3.2143579
-0.96028525 0.12063759 2.9630148
-0.90792304 0.099882886 2.9760685
2.2532475 -0.45388916 2.4484468
-1.6703588 0.10450778 2.6844687
-1.5808527 0.10784747 2.9476123
-1.411538 0.10553258 2.9539568
-1.3837595 0.10942782 2.6488748
-1.6673977 0.063782685 2.8500643
-1.4774628 0.10577279 2.9579494
-1.4911857 0.11100537 2.6749542
-1.4320636 0.10423227 2.9544713
-1.5174618 0.10501825 2.7570546
2.3099689 0.8403545 2.2029943
2.2347901 -0.48480231 2.3028734
-1.7486049 -0.060893133 2.9310784
-1.641117 0.10700195 2.732419
-1.5317788 0.099269591 3.0859549
-1.5089008 0.10639777 2.8078098
-1.5404367 0.098395489 2.6543612
-1.4706872 0.11093248 2.9529138
-1.4975033 0.11070233 2.6800361
-1.4141525 0.10684511 2.9537268
-1.4709789 0.10917827 2.6462185
-1.3656259 0.14534873 2.7703292
-1.336585 0.092600122 2.9668121
-1.1847701 0.09065222 2.971101
1.4536606 -0.42079866 2.5664365
2.0166452 0.12439293 3.0533478
-1.5373952 0.11120348 2.6415274
-1.5142032 0.10844814 2.6443803
-1.4103639 0.10602034 2.6569459
-0.90213716 0.11408959 2.363224
-1.382095 0.10811273 2.9537742
-1.363211 0.10710999 2.9549842
-1.3500388 0.10875881 2.9560034
2.3568792 -0.42025951 2.2580943
-1.5572474 0.092017934 2.819797
-1.5039215 0.11098025 2.6365733
-1.452511 0.10785106 2.6505919
-1.4127883 0.11424993 2.6365836
2.2431526 -0.4879213 2.5018456
-1.3918116 0.11377384 2.6385825
-1.3173233 0.10849269 2.653686
-1.3248724 0.11197512 2.6454501
-1.2774707 0.12199366 2.6240208
-1.2518711 0.11271119 2.6477294
-1.0984483 0.094589993 2.9689023
0.6731537 0.10945383 3.0388217
-1.4815849 0.10600723 2.9509125
-1.4380286 0.10689596 2.9525497
-1.3240192 0.10766115 2.9560471
-1.3658128 0.10700386 2.6561427
-1.4601445 0.10970046 2.9495749
-1.496596 0.11030341 2.6434619
-1.3743174 0.10699969 2.6556931
2.7984574 0.93935347 2.1245592
-1.4907807 0.10818943 2.9491398
-1.4878461 0.10966241 2.6456029
-1.4863729 0.10739341 2.6510956
-1.3811243 0.10713752 2.9545002
-1.3868065 0.10297478 2.6657836
-1.2779087 0.11231679 2.6481299
-1.2680862 0.1240866 2.6216147
-0.95735985 0.10911646 2.9686096
2.0705225 0.13247007 3.0656629
1.7754217 0.12358448 1.4601903
-1.3767582 0.10665364 2.9552512
-1.290422 0.10793108 2.9576945
-1.2813926 0.10909604 2.9575095
-1.3520119 0.1038908 2.6633809
-1.3070544 0.10735047 2.658273
-0.91975129 0.13829327 2.6014009
-1.5149579 0.10549629 2.7027349
-1.5188038 0.10461221 2.6544809
-0.83641094 0.097364441 2.9784009
-1.5013404 0.11008155 2.6426058
-1.4056655 0.11981035 2.6249149
-1.3795911 0.10687426 2.6552017
-1.2663219 0.12121006 2.6270847
-0.9905678 -0.011885043 2.7405584
2.3924565 0.71209413 2.5608697
-1.4074919 0.10741935 2.6535962
-1.3996978 0.11524501 2.6366642
-1.3042873 0.10888987 2.9569917
-1.4225436 0.10628387 2.9538748
-1.4517496 0.10529115 2.6568816
-1.3386061 0.10754877 2.9565542
-1.3418404 0.10780275 2.8263168
-1.267651 0.10720641 2.9592268
-1.2443383 0.10748841 2.9598043
-1.1868123 0.11182328 2.653583
-1.0980191 0.12522808 2.6250696
-0.82444012 0.11091807 2.9722331
1.8039111 0.1232219 1.4519167
2.1303306 0.23002 1.7223955
2.4744906 0.84752989 2.3840137
2.4313016 0.8050521 2.3344188
2.4415779 0.78375065 2.371594
2.4706681 0.77706128 2.403482
2.4794283 0.82965493 2.4898651
-1.3633642 0.10778977 2.654078
-1.3774513 0.10881229 2.6507571
-1.3635894 0.11654316 2.6351724
-1.2937945 0.10551925 2.6613557
-1.3042589 0.11923661 2.6307027
-1.2809212 0.11408003 2.6426876
-1.2269539 0.10817904 2.6586068
-1.2235851 0.11224902 2.6501877
-1.1430837 0.11140867 2.6548524
-1.1450479 0.1094279 2.6597154
-1.1300361 0.10564075 2.6669235
-0.99078798 0.10900853 2.9680324
-0.97892225 0.11921036 2.6461465
-0.89454085 0.10933123 2.9649663
-1.3788197 0.11975404 2.626008
-1.3116375 0.11397752 2.641679
-1.2822267 0.123972 2.6210146
-1.2554594 0.1085319 2.6577041
-1.2380621 0.11104614 2.6524951
-1.1449629 0.11750674 2.6417179
0.91023898 0.12486352 2.3910866
2.4867237 0.7309556 2.5283728
-1.315147 0.11096449 2.6487024
-1.1928892 0.10756052 2.9620819
-1.2625341 0.11206441 2.6484966
-1.2482077 0.11301527 2.6473179
-1.1475492 0.10753582 2.9632463
-1.1614552 0.1098993 2.6578317
-1.1259519 0.12704563 2.6234076
-1.1336566 0.11523585 2.6477222
-1.1198577 0.11010853 2.659229
-1.0255527 0.12306242 2.6366882
-0.96271205 0.11499139 2.6557031
-0.82650942 0.11295345 2.9728806
-0.91731995 0.11052053 2.6640244
-0.91067249 0.11412164 2.3592215
-1.4014702 0.10723134 2.6542008
-1.3560066 0.11193722 2.6453068
-1.2952237 0.11216462 2.6474242
-1.2078036 0.12145063 2.6298718
-1.1598259 0.12060799 2.6355307
-1.1461722 0.11329437 2.6513708
-1.0744874 0.11217958 2.6567054
-1.081646 0.11421739 2.6525998
-0.86503553 0.12266951 2.3349357
-0.24699996 0.1219426 2.3586688
2.4098132 0.8450464 2.3444724
2.5153797 0.78576756 2.3038406
-1.2393155 0.10588252 2.9608066
-1.3133987 0.1079565 2.6564097
-1.2941843 0.10937432 2.6533799
-1.2201333 0.10671767 2.9614522
-1.2256621 0.1068752 2.961096
-1.1860503 0.10698561 2.9624829
-1.2175117 0.10684326 2.660965
-1.1744258 0.11265572 2.6514871
-1.1745377 0.10743169 2.6609058
-1.2006316 0.11655103 2.6426196
-1.0869513 0.10688423 2.9655483
-1.0876749 0.11827215 2.6429787
-1.0201728 0.11536862 2.6533034
-1.0168697 0.11825646 2.6461489
-0.99510759 0.11861626 2.6467998
-1.0277317 0.088320896 2.4297383
-0.93085206 0.11869974 2.6506689
-0.9256255 0.1082725 2.6669095
-0.88480663 0.11995376 2.3466129
0.89740491 0.12325466 2.3780959
2.3196213 0.76921701 2.5590892
2.137445 0.72142774 2.5761697
-1.0193779 0.10735873 2.9678802
-1.0654159 0.11752144 2.6466565
-0.96320915 0.10731572 2.9694855
-0.97727048 0.11547666 2.6542697
-0.97177166 0.10054098 2.6777823
-0.88220769 0.11207166 2.9621432
-0.98353499 0.097281449 2.4069443
2.2851748 0.14560446 3.0675843
2.1388617 0.79354602 2.2470422
-1.2505826 0.10668526 2.6609061
-1.2192087 0.11161404 2.6518548
-1.1404927 0.10668489 2.9639351
-1.1940166 0.12209477 2.6301608
-1.0960993 0.1083466 2.964895
-1.169094 0.12154152 2.6328976
-1.1473049 0.11140708 2.6548216
-1.1496935 0.10860093 2.6609097
-1.1281934 0.10923187 2.6597533
-1.1005968 0.1095779 2.6603177
-1.0441389 0.10791352 2.6657691
-1.0098906 0.10875254 2.6657517
2.2771585 -0.53142846 2.4465134
2.3517921 0.84206259 2.5620818
2.4973955 0.17729157 3.0462127
-0.30642742 0.11723774 1.8076682
2.2998528 0.13363954 3.4013565
2.7917995 0.15920824 3.4597983
2.2001801 0.83254486 2.5861976
2.61097 0.8849526 2.5370038
2.4079154 0.85572243 2.5660791
2.6102314 0.14632639 3.4455612
2.3792911 0.86724257 2.5667074
-1.1986513 0.11027137 2.6555667
-1.1782292 0.11699148 2.6417496
-1.0931822 0.10713279 2.9654717
-1.0508777 0.10791872 2.9663734
-1.1459116 0.10842692 2.963486
-1.1419697 0.10620108 2.9639559
-1.1570102 0.11066027 2.65519
-1.0371878 0.10901067 2.9666052
-1.0395702 0.11456984 2.6530704
-1.0545943 0.11755162 2.6472588
-1.0201015 0.11154586 2.6594429
-0.87252432 0.11564066 2.972286
-0.91041386 0.1136863 2.3593638
0.28540611 0.11316666 3.0065513
0.92106837 0.075433686 3.0255492
1.3662004 0.099139228 3.0393407
1.100825 -0.36647546 2.5543764
2.0487058 0.13046183 3.0594544
2.4620359 0.87219393 2.5612605
2.3449664 -0.51469821 2.444823
1.6791583 -0.063832507 0.63527185
-1.1146703 0.11587135 2.6470871
-1.0274637 0.10753527 2.9675617
-1.0854164 0.11624238 2.6480224
-1.0075349 0.10678133 2.968266
-1.0856249 0.11798572 2.6450968
-0.94037545 0.10632242 2.9738996
-0.89525467 0.11052709 2.9663851
-0.86901754 0.11568746 2.9680185
-0.73124081 0.15362701 3.0618286
-0.88810903 0.11893909 2.6898007
-0.73781586 0.10947572 2.9751689
-0.70810205 0.10861187 2.9762454
-0.21402647 0.11244351 2.9919686
1.1323929 0.22558838 3.1346297
2.3261831 -0.5385626 2.4345396
1.8318284 0.045105446 0.79120779
0.67884654 0.12085843 3.0177557
0.98862636 0.13740127 3.0136209
1.3741604 0.11416289 3.0410659
2.2006607 -0.44051227 2.368777
2.2264938 -0.42519626 2.3925388
-0.99844676 0.1115192 2.6608863
-1.0004488 0.10643024 2.6693375
-0.93642098 0.1058301 2.972553
-0.9492414 0.10089157 2.844419
-0.89538074 0.11848898 2.352309
2.1999259 0.81295055 2.2393212
-1.0065683 0.088905036 2.6868141
-0.9651292 0.11330269 2.6590941
-0.93883789 0.11772271 2.6525524
2.3084679 -0.49380198 2.4673207
2.2653191 -0.5413869 2.5657012
2.1702595 0.24577799 1.7062876
-0.99760383 0.10906629 2.8506606
2.1264422 -0.44737902 2.4983206
2.1684561 -0.47425437 2.2932858
-0.91451156 0.11152352 2.6629725
2.2122972 -0.4597095 2.4018974
-0.1143783 0.15915598 2.4285748
2.1689219 -0.49923491 2.4234588
2.4247615 0.088781416 3.4069488
0.19875011 0.15355574 3.1543112
0.21138568 0.11740952 3.1269341
2.4771771 0.16131905 3.0734391
3.5998366 0.23395941 3.0094528
-0.2648088 0.1131729 2.5332391
-0.23103659 0.12109242 2.5173481
0.31047598 0.1214798 3.1263959
1.012373 0.13321906 2.4632261
2.1234214 -0.45094803 2.4148335
-0.25878212 0.11628998 2.5286157
-0.22174732 0.11692603 2.5265379
2.116256 -0.47233695 2.281868
2.1277878 -0.47408223 2.4301882
2.0674803 0.14659463 1.6673605
2.1679099 -0.46211314 2.5295722
2.1489913 -0.46090814 2.4709027
2.1012897 0.095518321 1.6917241
-0.24038035 0.11266275 2.9626014
-0.26353523 0.11464955 2.5324438
-0.13659814 0.11876623 2.5203617
-0.1908727 0.12881796 2.5011129
-0.16257052 0.14183791 2.39306
-0.23988065 0.11642222 2.7648766
0.72429931 0.12276768 3.1105001
0.71894717 0.11176626 3.1013215
1.0526118 0.13750589 1.8077445
-0.24614675 0.11724553 2.527658
2.1108267 -0.45988876 2.258661
0.96221352 0.20474993 3.1646988
2.691314 0.92068499 2.1382451
-0.23767377 0.11724063 2.5312433
0.35617805 0.12047374 2.506444
1.4148483 -0.31884786 2.640816
2.0999908 0.13343751 3.3096466
2.1896927 -0.48375228 2.2593637
2.1275773 -0.47949186 2.3700786
2.154115 -0.46492508 2.3798692
-0.27822772 0.12009629 2.5215762
-0.27037409 0.11873854 2.5242543
-0.25138795 0.11621423 2.529865
-0.19152339 0.12109866 2.5156362
-0.16390316 0.1173747 2.5241034
-0.10057779 0.12281999 2.5090592
0.5138576 0.11160448 3.1110208
1.0527501 0.13927494 1.8052149
1.9762805 0.6685344 2.6086259
2.0881062 -0.39803007 2.2199185
-0.32894966 0.11547877 2.5346789
-0.31997153 0.11843863 2.5262375
2.1224639 -0.42534974 2.4150469
2.1552315 -0.45124063 2.4255326
-0.2905727 0.098389395 2.9575801
-0.30283451 0.11827541 2.5268893
-0.27318045 0.11145457 2.5002763
-0.19397189 0.11493566 2.5299489
-0.3862294 0.11659964 2.5324733
-0.3555859 0.11683596 2.5309696
-0.2222638 0.11736996 2.9620197
-0.29821068 0.13038285 2.4960985
-0.18855734 0.12027095 2.5157073
-0.17976308 0.11465634 2.5305543
0.046969131 0.18706349 2.8623273
0.72456729 0.12299977 3.1103926
0.93965828 0.12627617 2.4856434
0.9677527 0.13177365 1.8508554
2.2285588 0.14689191 3.0607011
2.1882079 -0.51235831 2.3404694
2.087904 0.15046784 1.2402546
2.3100705 -0.41239911 2.5568924
-0.25093216 0.11218039 2.5336115
-0.12172154 0.11282377 2.5321767
-0.099214002 0.12885526 2.4933822
-0.066694416 0.12267862 2.5082946
-0.059132304 0.13049449 2.4882522
0.60329598 0.13354184 2.4853356
0.95956641 0.1242837 3.1017182
1.8975421 0.14918131 3.0844126
2.0752873 0.14703064 3.0896282
2.1345654 -0.44418862 2.3707576
2.1034741 -0.43930435 2.5181427
-0.32626918 0.12408993 2.5135078
-0.22270839 0.11723816 2.52667
-0.21645202 0.11759382 2.5247612
-0.20722809 0.11420511 2.5332484
-0.19074801 0.1155315 2.528446
-0.19051886 0.11439517 2.5270426
-0.10650832 0.12422649 2.5060415
0.74734712 0.12097999 3.1067894
0.84441632 0.12069838 3.1022015
1.411925 -0.3651509 2.5304401
1.5417906 -0.33334532 2.6290452
2.1538486 -0.41380432 2.4360809
2.1227834 -0.47960725 2.3858695
2.1008201 -0.42506149 2.3878682
2.2143822 -0.53252876 2.5776026
2.1356394 -0.50252247 2.584986
2.1649585 -0.3823958 2.580174
2.275496 0.15465918 3.0675275
1.9471375 0.057024408 1.7650626
2.1643987 0.05579672 0.51017296
2.7867596 -0.52278847 2.3963284
-0.21682014 0.1233642 2.5123727
2.0069761 0.14470723 1.3185066
2.7954037 0.19624278 3.0976722
0.028704796 0.12222346 2.515902
0.086648509 0.12218061 2.5145028
0.13455054 0.12934667 2.4988451
0.23810652 0.12424039 2.507535
0.044597447 0.12720166 2.5013847
0.065358579 0.12895216 2.4986589
0.11104005 0.1156152 2.5270722
0.15301605 0.12150945 2.511878
0.15583442 0.12382277 2.5094461
0.21572201 0.12366101 2.5075357
0.2523959 0.12699567 2.4979756
0.33225238 0.11754003 2.5162022
0.64850986 0.12485428 2.4970975
0.77949262 0.1351123 2.4798832
0.81988472 0.13165468 2.4847324
2.150708 -0.38433033 2.5631218
2.1988761 -0.42848703 2.3536527
2.2522113 -0.39728794 2.5654495
2.1970277 -0.49887133 2.3598771
2.0931025 -0.47130606 2.2879307
2.2195749 -0.49257162 2.3925638
1.8459508 0.13834432 0.89798194
0.056960631 0.11736635 2.5243928
0.20205492 0.11953686 2.5199656
0.20854999 0.11811655 2.5220854
0.21973555 0.11886062 2.5197356
0.14333794 0.11703697 2.2466538
0.27987978 0.12239514 2.5137248
0.145625 0.11739699 2.2447019
0.28007138 0.11661351 2.521512
0.30986285 0.12294133 2.5126326
0.32782423 0.11822016 2.5168219
0.33744684 0.12052879 2.5148804
0.25769949 0.099360786 2.316066
0.37171993 0.1220738 2.5124655
0.38992193 0.12511002 2.5043485
0.41487417 0.12229209 2.5110545
0.43813413 0.12312282 2.5091746
0.45851973 0.12331235 2.5083821
0.47611907 0.12588486 2.502012
0.4776639 0.13247751 2.4942157
0.45632824 0.12393887 2.3947082
0.52498323 0.12298526 2.5074456
0.55399674 0.12742797 2.5002782
0.32845765 0.11889832 2.0862954
0.59722179 0.12110449 2.5069628
0.62203169 0.12878206 2.4969442
0.62974918 0.12560414 2.5011115
0.66652459 0.12243482 2.5053339
0.71124339 0.12582274 2.4969754
0.81915587 0.13179919 2.4878159
0.89630246 0.13601927 2.4797029
0.96139473 0.13229944 2.4838006
0.95802075 0.12795794 2.4894083
0.9621467 0.13454209 1.8410074
1.7782977 -0.32715064 2.4976583
1.7843685 0.15929857 2.4224281
2.0813329 -0.51286501 2.5775719
2.0834455 -0.52450836 2.5737553
2.1143899 -0.50183713 2.587455
2.0633023 -0.44178069 2.3777657
2.0469193 -0.4273468 2.3849821
2.1317115 -0.41394481 2.3499799
2.1243682 -0.4287577 2.3703067
2.1230583 -0.44769138 2.4324374
2.1506186 -0.50575602 2.4464064
2.4437332 -0.46308619 2.3106074
2.1595161 0.048606303 1.4663702
2.1092401 0.11456141 1.6452084
2.2316735 0.15520781 1.708569
3.3405819 -0.54620141 2.0743413
-0.084252663 0.00063886144 2.5936935
0.38795328 0.120576 2.5141227
0.52433753 0.12750438 2.5011833
0.4578906 0.12362526 2.390619
0.67711264 0.12706691 2.4978814
0.73871273 0.1235738 2.5015502
0.7275188 0.13457274 2.486676
0.2267279 0.12054714 2.5182631
0.03228223 0.11409635 2.2348967
0.26321989 0.12083387 2.5169389
0.16487744 0.11782607 2.3601515
0.35079819 0.12307701 2.5733342
0.29995543 0.12487948 2.5103986
0.33140811 0.11814507 2.5167325
0.34324667 0.12208731 2.4850605
0.36449993 0.12078635 2.5137994
0.37103671 0.12544774 2.5058036
0.39932567 0.13669904 2.564714
0.32663482 0.11767056 2.4580271
0.15798123 0.11502159 2.1243949
0.16129526 0.11674425 2.1189797
0.44824487 0.11396819 2.5222447
0.35102654 0.1254214 2.3579962
0.53725541 0.12702917 2.5015662
2.1326435 -0.4093709 2.4480228
2.138804 -0.46926886 2.3759992
2.0711758 -0.43478477 2.3061433
2.0783293 -0.43494949 2.3272417
2.084255 -0.44047317 2.3674421
2.1150646 -0.43845564 2.3789518
2.0977569 -0.42339191 2.3909082
2.091475 -0.50122625 2.3578415
2.0974486 -0.38152343 2.2316341
2.0690076 -0.45264193 2.2910848
2.0928855 -0.42538518 2.3740425
2.0937324 -0.42454171 2.3637984
2.141613 -0.40890089 2.4058576
2.097481 -0.44153991 2.2727666
2.2598376 -0.54789412 2.5660391
2.203584 0.15919912 2.4012673
2.3529465 -0.56392241 2.5647969
2.351531 -0.40343902 2.5641
2.3647976 -0.57190758 2.1736491
0.22655052 0.1222415 2.5157261
0.54691279 0.17834789 2.5374358
0.58720899 0.12663436 2.5009942
0.33566308 0.11991914 2.0823092
0.66236418 0.1291171 2.4931452
0.66198033 0.1368019 2.4830389
0.27835724 0.14020282 1.8054509
0.74510705 0.12991582 2.4919209
0.75979143 0.13737355 2.4807856
0.59831911 0.12594292 2.1756349
0.79999739 0.13506752 2.4832947
1.0220613 0.14334416 2.4654312
1.040395 0.14530921 2.4624732
0.79745084 0.10755662 1.9688054
0.9810189 0.050338008 2.1795654
2.027679 -0.46236536 2.3015056
2.0920379 -0.52205569 2.237658
2.0699918 -0.45302516 2.2667742
2.0476248 -0.49813765 2.2314994
2.5809472 -0.53259987 2.2081671
2.1024613 -0.088200986 -0.86639994
0.33128947 0.12020432 2.271069
0.49529722 0.12008557 2.5118694
0.4863494 0.12926167 2.498404
0.48619261 0.1273493 2.5024061
0.63301182 0.12476961 2.4992805
0.64105141 0.13843578 2.4800818
0.7291714 0.12798411 2.4955099
0.78850031 0.13589609 2.481463
0.92456162 0.13294612 2.4834311
0.92157924 0.14449266 2.4670441
1.0088364 0.050890941 2.1710985
2.0788825 -0.48850214 2.3773413
2.0684695 -0.46933508 2.3379133
2.1115222 -0.45910436 2.3291051
2.0754368 -0.47443917 2.2689359
2.1097515 -0.4426564 2.2707472
0.19780627 0.1181263 2.4681733
0.31894469 0.11538159 2.4723408
0.041139297 0.11360928 2.2155256
0.34176761 0.12358324 2.3042521
0.48599428 0.12286112 2.5086782
0.51251864 0.11940812 2.5111151
0.58683425 0.12600277 2.5015697
0.56560636 0.12819757 2.499228
2.0962975 0.14781061 1.7564571
2.1314657 0.11549532 1.6340473
0.054323934 0.11632638 2.22733
0.27379361 0.12197945 2.5136919
0.26185113 0.12312585 2.5126777
0.25312483 0.11821528 2.440274
0.2718133 0.10331278 2.3687253
0.35352823 0.12521139 2.4520938
0.40325439 0.12061175 2.5120754
0.46594927 0.11913349 2.513567
0.33054864 0.12049591 2.2687848
0.31213704 0.12045509 1.8925424
2.409898 -0.48393568 2.2203896
2.1347499 0.094935253 1.3941112
2.8940647 0.22539435 1.4487973
2.075109 -0.085309282 -0.84180278
0.33313975 0.12577941 1.8741531
0.96076757 0.15213576 2.4550354
0.99676347 0.050485078 2.1737027
2.0664959 -0.51545608 2.2250533
2.1456165 0.15734236 2.0441349
1.4381911 0.18507974 0.03685832
-0.21312572 -0.035779949 2.6057785
0.2389726 0.11903797 2.5199735
0.1900524 0.11951219 2.4494412
0.24105635 0.12198392 2.5158765
0.23451479 0.11822356 2.4230735
0.32695723 0.11815091 2.4331317
0.33476487 0.12013552 2.4375863
0.34906286 0.12401249 2.4652631
0.27177954 0.10368168 2.3056405
0.2612392 0.10778882 1.9500798
0.38590586 0.18016273 1.617933
0.82594407 0.12988192 2.0613661
2.0977917 0.15499838 1.2129928
1.5952791 0.20841776 -0.18786281
18.242512 1.6503328 -5.1785316
0.23411116 0.12148897 2.517051
0.2848148 0.10528332 2.5277135
0.29779059 0.108089 2.5242693
0.44901311 0.12208761 2.3911977
0.28599289 0.10149432 1.9876033
0.61625731 -0.02426881 2.4865808
0.33514273 0.12821598 1.7858138
0.30019924 0.15730894 1.7250581
2.0842803 -0.37583983 2.2190938
0.31458303 0.12340135 1.7191004
0.34690997 0.15836667 1.7173716
0.42277625 0.18034768 1.6167144
12.549336 1.1165822 -2.7647519
0.16623871 0.11865946 2.4504094
0.10443512 0.11598404 2.350893
0.10773084 0.11697836 2.3480105
0.030521587 0.11135741 2.2272758
0.30678567 0.11758769 2.5200171
0.50854695 0.11850045 2.5134594
2.9636834 0.23542719 0.70969158
-0.20284387 -0.032356799 2.575485
-0.079592384 0.0047085541 2.3704169
-0.22016273 -0.037784323 2.6095796
0.22630288 0.096190989 1.916015
0.22410141 0.12047272 2.5176327
0.31612203 0.11485836 2.441026
0.12971255 0.10429724 1.9708329
0.33328536 0.11990755 2.4364674
0.44585741 0.12225264 2.3912005
0.45117018 0.12197052 2.3958707
2.152086 0.15915151 1.7347444
2.0209761 0.14912729 -1.5413694
-2.8952277 0.10451874 4.3562069
-2.7613468 0.17539304 4.3110671
-2.7816825 0.16769767 4.4095907
-2.8513091 0.092353672 4.6031594
-3.0122738 -0.014528706 4.7854719
-2.8176169 -0.08938925 4.7502856
-2.244765 0.14686301 4.6070175
-2.6559021 0.08761543 4.9281058
-1.8247745 0.085257664 5.2044773
-2.1417186 0.14276245 6.1274614
-0.66078734 -0.41699165 5.8763661
-0.72046477 0.05307525 6.0832977
-1.0448401 0.36785087 5.7344971
-0.92029274 0.29647103 6.5669866
-0.48205003 0.14287092 6.1752548
-1.3609071 0.1243621 7.6498013
-1.0899073 0.046715636 10.096539
-2.682385 0.13596785 4.1188598
-2.7180383 0.14571197 4.143754
-2.7358091 0.16361509 4.1897078
-2.6886816 0.16276851 4.1899152
-2.9039958 -0.05514852 4.3272309
-2.5702412 0.16086084 4.1908479
-2.5774825 0.15515199 4.175694
-2.8547277 0.12977423 4.5858197
-2.1960726 0.14674915 4.6353359
-2.0450521 0.21218109 5.1143312
-1.7083067 0.24851841 5.3473768
-1.7104014 0.24689215 5.2617579
-0.51116383 -0.079793565 5.8787918
-0.88940161 0.13097231 5.9400187
-0.75399452 -0.026475852 5.9762893
-0.70107865 -0.40514842 6.0344915
-0.29004207 0.17316262 6.0900464
-0.66542298 -0.0077477284 6.8961096
-2.8134606 0.15538813 4.1629295
-2.6345015 0.13301994 4.112721
-2.6742613 0.14981011 4.1561007
-2.7274811 0.16226353 4.1861892
-2.6719739 0.16763854 4.2049184
-2.6945646 0.18314813 4.2443419
-2.5452762 0.16318735 4.1997099
-2.5278678 0.17798492 4.2394104
-2.772249 0.14982803 4.3358283
-2.4898739 0.18748249 4.2653923
-1.9829767 0.35209405 4.7829752
-1.4723237 0.19526228 5.0228829
-0.77867222 -0.30254513 5.7679505
-0.34565672 -0.52712524 5.8854361
-0.74325073 0.13624503 5.8973174
-0.17259564 0.129398 6.2141514
-0.95325696 0.16095011 6.7637677
-0.46716669 -0.02253288 7.1491189
-2.7592523 0.15341748 4.161222
-2.6825032 0.13348423 4.1121578
-2.7632821 0.1514823 4.1563234
-2.688514 0.14203507 4.1352282
-2.7715502 0.16941759 4.2271085
-2.6616082 0.16046333 4.184772
-2.8931382 0.10190574 4.3436756
-2.6407475 0.1804297 4.2385583
-2.7973344 0.11563973 4.8119965
-2.662446 0.12655239 4.927474
-1.3784988 -0.26796553 5.1800995
-0.35815638 -0.046055697 5.9296155
-0.48740184 0.34071997 5.8950715
-0.42228878 -0.42442244 5.902986
-0.46887097 -0.080569349 5.9325171
-0.40656319 0.35184062 5.9671803
-0.33080038 -0.047948964 5.9567227
-0.35990256 -0.088395223 5.9368539
-0.29444245 0.23141643 5.9262433
-0.41853631 0.17206526 6.1071839
-0.33462766 -0.087757826 5.9582734
-0.22626562 0.14981395 6.0100985
-0.38904575 -0.39656189 5.911819
-0.27816597 0.13145398 6.2105441
-0.26779357 0.027490294 5.9491115
-0.86244762 -0.25324535 6.5242434
-0.26360565 0.14143978 6.1463399
-2.6469824 0.16313492 4.1920815
-2.4764762 0.19036637 4.2764893
-0.3448256 -0.52932274 5.9281955
-0.94544089 0.045545161 6.5705233
0.38816693 0.025507459 6.303421
0.24798913 -1.1077042 6.1747546
-2.7143531 0.16651541 4.1990757
-2.6733696 0.16733295 4.2020063
-2.7573538 0.15461019 4.3466396
-0.22039922 0.23877522 5.9880524
-0.28190491 -0.54630905 5.9519296
-0.69438553 0.045149952 6.1233544
0.3251228 0.030357776 6.2443581
0.3086485 0.26502442 6.2344408
-0.34514266 -0.53124726 5.9182582
-0.34670344 -0.081456907 6.0463214
-0.98648906 -0.633228 9.3333836
-2.7808225 0.16443719 4.2232184
-2.5941803 0.16866034 4.2102137
-1.6244313 0.20143093 4.9545717
-1.2001206 0.34405145 5.7924657
-0.6812948 0.10450723 5.8468819
-0.9658401 -0.46530998 5.8148961
-0.48037535 -0.075968325 6.0325189
-0.45969409 -0.047511414 5.9244013
-0.23313524 -0.52919078 5.9967718
-0.65520173 -0.47485965 6.064363
-0.66890192 0.069024831 6.164257
-0.72664541 0.063826188 6.2844629
-0.7706756 0.061463885 6.2349238
-0.37547615 -0.43802017 5.9999666
-0.46174029 -0.43027416 5.9224787
-0.81549966 0.057779461 6.1758862
-0.34807855 0.12546386 6.1464534
0.21541066 0.27356261 6.1882672
0.42372194 0.27933556 6.3485961
0.416596 0.44143853 6.2970052
0.37648034 -0.83926886 6.274941
